7575.14 7582.96 7590.84 7598.5 7606.46 7614.14 7622.01 7629.91 7637.61 7645.32 7653.28 7660.95 7668.8 7676.59 7684.36 7692.11 7699.91 7707.79 7715.49 7723.27 7731.12 7738.79 7746.47 7754.35 7762.11 7769.81 7777.58 7785.33 7793.13 7800.78 7808.52 7816.31 7824.02 7831.79 7839.38 7847.28 7854.86 7862.62 7870.32 7877.79 7885.65 7893.27 7900.87 7908.54 7916.25 7924 7931.49 7939.24 7946.91 7954.5 7962 7969.66 7977.18 7984.89 7992.35 8000.07 8007.6 8015.27 8022.74 8030.2 8037.82 8045.29 8052.77 8060.35 8067.94 8075.4 8082.79 8090.21 8097.69 8105.25 8112.64 8120.03 8127.54 8134.92 8142.19 8149.59 8157.04 8164.4 8171.69 8179.02 8186.35 8193.7 8201.06 8208.22 8215.63 8222.78 8230.15 8237.25 8244.48 8251.69 8258.96 8265.98 8273.36 8280.42 8287.56 8294.67 8301.93 8308.87 8316.01 8323.09 8330.12 8337.04 8344.22 8351.19 8358.21 8365.01 8372.1 8379.14 8385.98 8392.96 8399.71 8406.56 8413.43 8420.28 8427.16 8434.01 8440.72 8447.43 8454.11 8460.96 8467.64 8474.27 8480.92 8487.68 8494.24 8500.7 8507.53 8514.04 8520.51 8527.09 8533.52 8540.08 8546.49 8552.99 8559.41 8565.75 8572.08 8578.51 8584.8 8591.2 8597.43 8603.57 8609.97 8616.15 8622.32 8628.43 8634.64 8640.77 8646.81 8652.96 8658.86 8664.96 8670.99 8676.9 8682.85 8688.74 8694.64 8700.51 8706.43 8712.14 8718.02 8723.63 8729.42 8735.11 8740.84 8746.49 8752.12 8757.75 8763.19 8768.82 8774.14 8779.83 8785.17 8790.67 8795.95 8801.44 8806.92 8812.03 8817.34 8822.6 8827.74 8832.85 8838.1 8843.09 8848.34 8853.38 8858.43 8863.37 8868.37 8873.26 8878.17 8883.09 8887.86 8892.78 8897.33 8902.2 8906.87 8911.61 8916.1 8920.76 8925.31 8929.85 8934.35 8938.82 8943.32 8947.59 8951.97 8956.47 8960.66 8964.9 8969.17 8973.32 8977.48 8981.56 8985.63 8989.62 8993.5 8997.59 9001.53 9005.47 9009.21 9013.12 9016.77 9020.52 9024.32 9027.88 9031.51 9035.17 9038.69 9042.12 9045.55 9049.05 9052.53 9055.83 9059.15 9062.38 9065.62 9068.88 9072.02 9075.03 9078.12 9081.26 9084.17 9087.18 9090.07 9092.94 9095.86 9098.54 9101.21 9103.9 9106.72 9109.28 9111.8 9114.41 9116.88 9119.26 9121.81 9124.21 9126.46 9128.8 9131.04 9133.33 9135.42 9137.56 9139.58 9141.6 9143.58 9145.61 9147.34 9149.26 9151.09 9152.98 9154.63 9156.39 9157.97 9159.57 9161.19 9162.74 9164.17 9165.45 9166.96 9168.22 9169.58 9170.73 9172 9173.13 9174.16 9175.4 9176.43 9177.41 9178.39 9179.25 9180.07 9180.92 9181.62 9182.33 9183.1 9183.69 9184.19 9184.77 9185.31 9185.67 9186.15 9186.58 9186.81 9187.13 9187.29 9187.58 9187.6 9187.62 9187.7 9187.72 9187.66 9187.61 9187.46 9187.42 9187.05 9186.81 9186.52 9186.16 9185.84 9185.29 9184.78 9184.27 9183.64 9183.13 9182.36 9181.59 9180.97 9180.11 9179.19 9178.31 9177.38 9176.37 9175.46 9174.32 9173.33 9171.95 9170.78 9169.6 9168.23 9166.8 9165.53 9164.14 9162.67 9161.22 9159.6 9158.09 9156.38 9154.66 9152.89 9151.15 9149.39 9147.39 9145.59 9143.59 9141.65 9139.6 9137.55 9135.4 9133.18 9130.97 9128.84 9126.46 9124.17 9121.64 9119.37 9116.95 9114.43 9111.87 9109.32 9106.57 9104.05 9101.29 9098.54 9095.79 9092.85 9090
7570.65 7578.5 7586.29 7594.03 7601.97 7609.56 7617.41 7625.25 7633 7640.8 7648.58 7656.37 7664.22 7671.91 7679.64 7687.44 7695.19 7702.94 7710.74 7718.47 7726.28 7733.96 7741.8 7749.62 7757.22 7764.98 7772.72 7780.53 7788.13 7795.92 7803.61 7811.24 7819 7826.75 7834.47 7842.13 7849.88 7857.49 7865.22 7872.93 7880.57 7888.24 7895.98 7903.43 7911.17 7918.76 7926.36 7933.89 7941.64 7949.09 7956.83 7964.55 7972.11 7979.64 7987.16 7994.68 8002.32 8009.79 8017.35 8024.96 8032.56 8039.9 8047.38 8054.99 8062.3 8069.76 8077.26 8084.78 8092.29 8099.66 8107.05 8114.44 8121.92 8129.24 8136.66 8144.11 8151.43 8158.67 8166.02 8173.34 8180.69 8187.95 8195.13 8202.58 8209.73 8217.06 8224.35 8231.52 8238.73 8245.84 8253.16 8260.37 8267.46 8274.59 8281.79 8288.81 8295.94 8303.02 8310.12 8317.04 8324.12 8331.25 8338.22 8345.04 8352.12 8359.04 8365.99 8372.97 8379.78 8386.8 8393.58 8400.52 8407.38 8414.11 8420.99 8427.7 8434.41 8441.18 8448 8454.59 8461.35 8467.94 8474.74 8481.28 8487.8 8494.44 8501.04 8507.57 8514.18 8520.65 8527.05 8533.71 8539.99 8546.53 8552.78 8559.28 8565.57 8571.97 8578.35 8584.62 8590.85 8597.12 8603.35 8609.53 8615.67 8621.84 8627.89 8633.98 8640.14 8646.19 8652.12 8658.17 8664.11 8670.15 8676.11 8682.01 8687.86 8693.7 8699.46 8705.42 8711.18 8716.85 8722.54 8728.38 8733.94 8739.6 8745.14 8750.69 8756.37 8761.77 8767.36 8772.73 8778.24 8783.7 8789.02 8794.37 8799.62 8804.93 8810.3 8815.48 8820.7 8825.81 8830.89 8836.08 8841.16 8846.18 8851.12 8856.21 8861.06 8866.1 8870.94 8875.77 8880.62 8885.36 8890.13 8894.9 8899.61 8904.14 8908.87 8913.44 8918.13 8922.47 8927.04 8931.43 8935.82 8940.27 8944.67 8948.96 8953.17 8957.41 8961.54 8965.8 8969.92 8974.02 8978.17 8982.15 8986.14 8990.07 8993.92 8997.83 9001.62 9005.52 9009.15 9012.97 9016.58 9020.29 9023.93 9027.5 9030.95 9034.58 9037.95 9041.48 9044.72 9048.13 9051.51 9054.71 9057.81 9061.06 9064.18 9067.31 9070.38 9073.42 9076.46 9079.35 9082.36 9085.11 9087.97 9090.65 9093.59 9096.18 9098.86 9101.48 9104.11 9106.55 9109.03 9111.48 9113.91 9116.3 9118.56 9120.88 9123.17 9125.33 9127.54 9129.64 9131.64 9133.74 9135.63 9137.7 9139.47 9141.35 9143.3 9145.01 9146.72 9148.46 9149.91 9151.67 9153.15 9154.75 9156.17 9157.63 9159.03 9160.3 9161.6 9162.82 9164.07 9165.15 9166.39 9167.35 9168.36 9169.37 9170.33 9171.26 9172.07 9172.87 9173.67 9174.34 9174.98 9175.59 9176.22 9176.78 9177.28 9177.63 9178.1 9178.49 9178.77 9178.98 9179.34 9179.43 9179.51 9179.64 9179.73 9179.76 9179.59 9179.66 9179.47 9179.18 9178.94 9178.78 9178.5 9178.13 9177.66 9177.21 9176.74 9176.19 9175.65 9174.93 9174.43 9173.63 9172.79 9172.03 9171.21 9170.32 9169.31 9168.4 9167.38 9166.24 9165.25 9164.09 9162.83 9161.61 9160.27 9158.99 9157.49 9156.13 9154.64 9153.12 9151.55 9150.11 9148.38 9146.78 9144.98 9143.19 9141.38 9139.47 9137.68 9135.69 9133.67 9131.73 9129.63 9127.58 9125.45 9123.24 9120.95 9118.68 9116.29 9113.91 9111.49 9109.07 9106.56 9104.13 9101.49 9098.87 9096.18 9093.49 9090.59 9087.88 9085.02 9082.25
7566.08 7573.89 7581.83 7589.39 7597.19 7605.13 7612.85 7620.61 7628.4 7636.13 7643.88 7651.74 7659.48 7667.18 7674.91 7682.76 7690.51 7698.22 7705.98 7713.73 7721.46 7729.17 7736.96 7744.55 7752.36 7760.23 7767.78 7775.43 7783.35 7791.01 7798.67 7806.38 7814.09 7821.71 7829.49 7837.17 7844.89 7852.38 7860.21 7867.77 7875.46 7883.16 7890.69 7898.39 7906.02 7913.59 7921.28 7928.9 7936.42 7944.01 7951.52 7959.22 7966.74 7974.27 7981.93 7989.33 7996.92 8004.64 8011.95 8019.52 8026.95 8034.48 8041.87 8049.51 8056.85 8064.47 8071.81 8079.18 8086.73 8094.08 8101.54 8108.93 8116.33 8123.68 8131.01 8138.31 8145.69 8153.03 8160.48 8167.67 8175.05 8182.25 8189.46 8196.84 8204.07 8211.21 8218.61 8225.81 8232.91 8240.05 8247.36 8254.37 8261.63 8268.67 8275.85 8282.79 8289.97 8297.07 8304.16 8311.11 8318.1 8325.17 8332.19 8339.21 8346.12 8353.03 8359.94 8366.84 8373.73 8380.51 8387.44 8394.21 8401.02 8407.95 8414.6 8421.47 8428.25 8434.92 8441.69 8448.35 8454.94 8461.69 8468.32 8474.81 8481.54 8488.17 8494.61 8501.25 8507.61 8514.19 8520.64 8527.22 8533.57 8539.98 8546.38 8552.74 8559.08 8565.44 8571.81 8578.04 8584.29 8590.44 8596.66 8602.74 8609.03 8615.15 8621.16 8627.37 8633.54 8639.36 8645.4 8651.44 8657.45 8663.47 8669.31 8675.07 8681.02 8686.82 8692.69 8698.35 8704.21 8709.94 8715.59 8721.3 8727.09 8732.58 8738.19 8743.87 8749.3 8754.82 8760.41 8765.71 8771.26 8776.58 8781.99 8787.3 8792.58 8797.83 8803.07 8808.35 8813.54 8818.7 8823.68 8828.93 8834 8839.06 8844.08 8848.97 8853.96 8858.77 8863.66 8868.57 8873.36 8878.16 8882.91 8887.53 8892.16 8896.87 8901.44 8906 8910.59 8915.17 8919.65 8924.09 8928.46 8932.91 8937.18 8941.48 8945.66 8950 8954.19 8958.27 8962.4 8966.49 8970.51 8974.59 8978.6 8982.57 8986.35 8990.31 8994.04 8997.75 9001.58 9005.28 9009.06 9012.69 9016.3 9019.77 9023.29 9026.91 9030.29 9033.69 9037.16 9040.36 9043.73 9046.98 9050.19 9053.35 9056.48 9059.62 9062.73 9065.75 9068.68 9071.48 9074.51 9077.28 9080.07 9082.85 9085.71 9088.39 9091.01 9093.63 9096.21 9098.6 9101.21 9103.61 9106.12 9108.46 9110.65 9112.98 9115.28 9117.46 9119.66 9121.75 9123.74 9125.86 9127.67 9129.59 9131.59 9133.37 9135.28 9137.06 9138.75 9140.45 9142.06 9143.66 9145.25 9146.77 9148.15 9149.61 9150.97 9152.28 9153.52 9154.79 9155.9 9157.16 9158.28 9159.3 9160.48 9161.38 9162.28 9163.14 9163.98 9164.86 9165.54 9166.3 9167.07 9167.62 9168.11 9168.77 9169.18 9169.66 9170.07 9170.44 9170.77 9170.97 9171.21 9171.42 9171.59 9171.58 9171.61 9171.65 9171.59 9171.51 9171.37 9171.23 9171.1 9170.73 9170.42 9170.1 9169.61 9169.25 9168.77 9168.24 9167.65 9166.95 9166.3 9165.55 9164.86 9164.09 9163.18 9162.24 9161.34 9160.31 9159.33 9158.24 9157.21 9156.07 9154.9 9153.58 9152.32 9150.94 9149.56 9148.1 9146.62 9145.21 9143.7 9142.06 9140.45 9138.81 9136.93 9135.22 9133.52 9131.66 9129.6 9127.65 9125.67 9123.75 9121.65 9119.53 9117.4 9115.32 9112.97 9110.79 9108.37 9106.06 9103.66 9101.22 9098.69 9096.08 9093.55 9091.05 9088.39 9085.6 9082.91 9080.13 9077.37 9074.38
7561.59 7569.3 7577.15 7584.91 7592.56 7600.48 7608.13 7615.92 7623.73 7631.54 7639.26 7646.98 7654.72 7662.53 7670.3 7677.99 7685.77 7693.47 7701.17 7708.86 7716.7 7724.4 7732.07 7739.88 7747.55 7755.21 7762.87 7770.71 7778.29 7785.99 7793.75 7801.46 7808.96 7816.78 7824.39 7831.99 7839.71 7847.39 7855.09 7862.69 7870.32 7878.01 7885.47 7893.19 7900.85 7908.37 7916.02 7923.58 7931.25 7938.67 7946.46 7953.79 7961.46 7969.06 7976.62 7984.07 7991.57 7999.12 8006.6 8014.12 8021.56 8029 8036.42 8043.89 8051.64 8058.99 8066.33 8073.76 8081.21 8088.69 8095.89 8103.51 8110.63 8118.14 8125.59 8132.78 8140.09 8147.36 8154.77 8162.04 8169.29 8176.53 8183.8 8191.13 8198.42 8205.62 8212.65 8219.94 8227.15 8234.36 8241.49 8248.62 8255.67 8262.77 8269.89 8276.91 8284.11 8291.03 8297.9 8305.21 8312.15 8319.07 8326.15 8333.02 8339.88 8346.84 8353.89 8360.61 8367.48 8374.44 8381.21 8388.13 8394.95 8401.67 8408.5 8415.21 8422.05 8428.64 8435.26 8442.02 8448.72 8455.33 8461.96 8468.58 8475.12 8481.68 8488.25 8494.84 8501.38 8507.8 8514.2 8520.66 8527.02 8533.47 8539.86 8546.2 8552.57 8558.82 8565.15 8571.4 8577.57 8583.83 8590.06 8596.27 8602.23 8608.47 8614.53 8620.74 8626.66 8632.74 8638.79 8644.73 8650.64 8656.61 8662.46 8668.34 8674.23 8680.12 8685.79 8691.61 8697.32 8703.13 8708.71 8714.38 8719.92 8725.72 8731.16 8736.83 8742.27 8747.7 8753.36 8758.73 8764.14 8769.52 8774.94 8780.27 8785.43 8790.74 8795.98 8801.14 8806.38 8811.45 8816.58 8821.71 8826.66 8831.77 8836.82 8841.63 8846.69 8851.53 8856.27 8861.17 8866.06 8870.85 8875.53 8880.2 8884.83 8889.47 8894.04 8898.66 8903.23 8907.78 8912.18 8916.72 8920.98 8925.37 8929.68 8933.99 8938.29 8942.48 8946.61 8950.75 8954.95 8959.05 8963.07 8966.99 8970.85 8974.91 8978.77 8982.67 8986.45 8990.32 8993.97 8997.69 9001.35 9005.08 9008.63 9012.08 9015.69 9019.18 9022.61 9026.07 9029.42 9032.69 9035.9 9039.18 9042.48 9045.5 9048.81 9051.83 9054.89 9057.86 9060.85 9063.75 9066.75 9069.47 9072.31 9075.03 9077.9 9080.52 9083.01 9085.74 9088.32 9090.79 9093.28 9095.77 9098.24 9100.57 9102.77 9105.07 9107.28 9109.45 9111.62 9113.63 9115.77 9117.86 9119.77 9121.75 9123.62 9125.48 9127.26 9129.11 9130.72 9132.43 9134.16 9135.64 9137.16 9138.69 9140.14 9141.58 9142.87 9144.26 9145.58 9146.79 9147.94 9149.15 9150.2 9151.33 9152.28 9153.28 9154.31 9155.06 9156.13 9156.79 9157.54 9158.22 9158.91 9159.43 9160.11 9160.63 9161.1 9161.56 9162.06 9162.35 9162.65 9162.96 9163.2 9163.39 9163.53 9163.58 9163.65 9163.53 9163.61 9163.51 9163.33 9163.07 9162.89 9162.72 9162.32 9161.97 9161.71 9161.15 9160.61 9160.06 9159.59 9158.89 9158.27 9157.57 9156.76 9156.04 9155.09 9154.25 9153.34 9152.37 9151.33 9150.27 9149.13 9147.92 9146.78 9145.55 9144.26 9142.95 9141.75 9140.13 9138.75 9137.26 9135.74 9133.99 9132.47 9130.63 9129.03 9127.38 9125.43 9123.64 9121.71 9119.77 9117.78 9115.79 9113.8 9111.64 9109.56 9107.32 9105.03 9102.75 9100.52 9098.12 9095.76 9093.38 9090.81 9088.32 9085.75 9083.07 9080.45 9077.84 9075.11 9072.37 9069.59 9066.7
7557.06 7564.83 7572.58 7580.31 7588.05 7595.79 7603.64 7611.26 7619.14 7626.76 7634.48 7642.24 7650 7657.71 7665.51 7673.22 7681.01 7688.77 7696.35 7704.03 7711.75 7719.41 7727.17 7734.93 7742.72 7750.25 7758.03 7765.76 7773.29 7781.11 7788.67 7796.39 7804.09 7811.71 7819.42 7827.08 7834.69 7842.37 7849.96 7857.59 7865.13 7872.74 7880.38 7888.07 7895.65 7903.19 7910.86 7918.29 7925.8 7933.47 7941.06 7948.54 7956.1 7963.72 7971.12 7978.66 7986.14 7993.6 8001.12 8008.62 8016.22 8023.6 8031.12 8038.48 8045.93 8053.43 8060.87 8068.18 8075.64 8083.01 8090.4 8097.7 8105.09 8112.48 8119.76 8127.08 8134.38 8141.73 8149.03 8156.33 8163.42 8170.87 8177.99 8185.34 8192.45 8199.65 8206.84 8214.03 8221.26 8228.33 8235.45 8242.54 8249.67 8256.84 8263.86 8270.94 8278 8285.09 8292.14 8298.97 8306.09 8313.08 8319.97 8326.89 8333.8 8340.79 8347.68 8354.63 8361.4 8368.33 8375.23 8381.83 8388.6 8395.45 8402.25 8408.95 8415.77 8422.45 8429.13 8435.76 8442.32 8448.96 8455.58 8462.11 8468.67 8475.31 8481.81 8488.44 8494.87 8501.26 8507.67 8513.99 8520.51 8526.93 8533.34 8539.78 8546 8552.08 8558.47 8564.9 8570.94 8577.1 8583.38 8589.51 8595.63 8601.76 8607.83 8613.86 8619.88 8625.92 8632.01 8637.8 8643.92 8649.78 8655.66 8661.5 8667.39 8673.2 8678.91 8684.71 8690.43 8696.18 8701.78 8707.45 8713.01 8718.86 8724.21 8729.83 8735.23 8740.75 8746.21 8751.65 8756.94 8762.43 8767.72 8773.13 8778.36 8783.65 8788.79 8793.88 8799.24 8804.23 8809.34 8814.55 8819.53 8824.54 8829.43 8834.52 8839.32 8844.3 8849.03 8853.86 8858.67 8863.54 8868.19 8872.87 8877.48 8882.1 8886.68 8891.18 8895.77 8900.32 8904.61 8909.16 8913.53 8917.85 8922.2 8926.41 8930.62 8934.95 8939.04 8943.25 8947.26 8951.34 8955.42 8959.46 8963.3 8967.41 8971.13 8975.08 8978.76 8982.43 8986.36 8990.12 8993.75 8997.38 9000.89 9004.45 9007.93 9011.42 9014.95 9018.27 9021.47 9024.95 9028.16 9031.47 9034.56 9037.78 9040.86 9044.03 9047.08 9049.98 9052.98 9055.89 9058.76 9061.62 9064.53 9067.15 9069.95 9072.64 9075.21 9077.82 9080.44 9082.96 9085.41 9087.69 9090.19 9092.69 9094.94 9097.16 9099.44 9101.55 9103.59 9105.79 9107.77 9109.81 9111.87 9113.7 9115.64 9117.44 9119.3 9121.01 9122.72 9124.43 9126.07 9127.74 9129.21 9130.69 9132.21 9133.57 9134.84 9136.26 9137.49 9138.76 9139.96 9141.17 9142.24 9143.23 9144.22 9145.22 9146.27 9147.06 9147.87 9148.69 9149.42 9150.21 9150.82 9151.5 9152.08 9152.58 9153.03 9153.48 9153.89 9154.29 9154.52 9154.9 9154.95 9155.18 9155.36 9155.41 9155.44 9155.61 9155.38 9155.46 9155.31 9154.98 9154.78 9154.53 9154.35 9153.81 9153.57 9153.07 9152.52 9152.05 9151.45 9150.86 9150.19 9149.43 9148.63 9147.81 9147.18 9146.26 9145.21 9144.29 9143.22 9142.24 9141.09 9140 9138.8 9137.52 9136.19 9134.95 9133.5 9132.1 9130.62 9129.16 9127.59 9126.08 9124.38 9122.84 9121.06 9119.25 9117.51 9115.66 9113.8 9111.93 9109.74 9107.92 9105.7 9103.69 9101.58 9099.37 9097.18 9094.97 9092.65 9090.26 9087.86 9085.36 9082.88 9080.46 9077.88 9075.24 9072.57 9070.03 9067.23 9064.6 9061.69 9058.85
7552.46 7560.13 7568.05 7575.61 7583.5 7591.17 7599 7606.63 7614.41 7622.13 7629.83 7637.56 7645.3 7652.95 7660.76 7668.4 7676.01 7683.89 7691.55 7699.2 7706.93 7714.62 7722.35 7730.12 7737.71 7745.38 7753.15 7760.76 7768.42 7776.15 7783.77 7791.29 7798.99 7806.71 7814.23 7822.03 7829.46 7837.24 7844.99 7852.51 7860.02 7867.62 7875.21 7882.84 7890.51 7897.99 7905.54 7913.14 7920.76 7928.23 7935.75 7943.23 7950.82 7958.33 7965.82 7973.19 7980.85 7988.3 7995.84 8003.19 8010.74 8018.23 8025.65 8033 8040.38 8047.88 8055.3 8062.68 8069.99 8077.47 8084.82 8092.08 8099.44 8106.9 8114.11 8121.39 8128.68 8135.99 8143.25 8150.52 8157.83 8165.08 8172.25 8179.41 8186.69 8193.76 8200.99 8208.23 8215.31 8222.46 8229.55 8236.67 8243.78 8250.8 8257.99 8265.12 8271.91 8278.99 8286.01 8293.03 8299.95 8306.86 8313.99 8320.84 8327.68 8334.66 8341.44 8348.46 8355.15 8362.02 8368.82 8375.77 8382.49 8389.15 8395.91 8402.67 8409.43 8416.08 8422.67 8429.4 8436.02 8442.59 8449.19 8455.89 8462.36 8468.93 8475.31 8481.76 8488.32 8494.8 8501.14 8507.56 8514.09 8520.34 8526.75 8533 8539.41 8545.58 8551.79 8558.19 8564.38 8570.6 8576.72 8582.72 8589.01 8595.05 8601.12 8607.13 8613.13 8619.1 8625.07 8631.11 8636.95 8642.89 8648.82 8654.55 8660.45 8666.1 8672.12 8677.73 8683.46 8689.24 8694.89 8700.4 8706.19 8711.57 8717.25 8722.72 8728.16 8733.66 8739.13 8744.51 8749.96 8755.41 8760.65 8765.95 8771.23 8776.4 8781.71 8786.77 8792.04 8797.12 8802.16 8807.35 8812.28 8817.13 8822.24 8827.12 8832.04 8836.85 8841.76 8846.66 8851.38 8856.02 8860.77 8865.54 8870.1 8874.67 8879.35 8883.9 8888.36 8892.81 8897.33 8901.62 8905.97 8910.36 8914.55 8918.84 8923.08 8927.33 8931.58 8935.58 8939.77 8943.81 8947.82 8951.82 8955.77 8959.72 8963.51 8967.43 8971.24 8974.99 8978.6 8982.35 8986.02 8989.55 8993.16 8996.74 9000.22 9003.66 9007.2 9010.58 9013.87 9017.21 9020.46 9023.59 9026.83 9029.88 9033.18 9036.17 9039.22 9042.15 9045.16 9048.11 9050.92 9053.8 9056.55 9059.33 9062.14 9064.77 9067.41 9070.01 9072.55 9074.96 9077.62 9079.88 9082.33 9084.69 9086.94 9089.12 9091.35 9093.58 9095.7 9097.82 9099.85 9101.89 9103.86 9105.76 9107.59 9109.47 9111.21 9112.98 9114.7 9116.4 9118.05 9119.58 9121.13 9122.61 9124.04 9125.45 9126.88 9128.06 9129.42 9130.62 9131.88 9133.02 9134.2 9135.26 9136.16 9137.16 9138.18 9138.91 9139.75 9140.57 9141.26 9142.07 9142.65 9143.34 9143.81 9144.58 9144.91 9145.29 9145.73 9146.16 9146.42 9146.7 9146.97 9147.06 9147.19 9147.33 9147.34 9147.37 9147.28 9147.13 9147.11 9146.98 9146.66 9146.41 9146.19 9145.76 9145.4 9144.94 9144.46 9143.92 9143.41 9142.73 9142.1 9141.33 9140.56 9139.84 9138.94 9138.08 9137.11 9136.28 9135.17 9134.09 9132.98 9131.87 9130.58 9129.43 9128.13 9126.93 9125.49 9124.21 9122.52 9121.13 9119.56 9117.95 9116.37 9114.62 9112.95 9111.24 9109.48 9107.74 9105.75 9103.79 9101.81 9099.74 9097.85 9095.72 9093.65 9091.34 9089.12 9086.9 9084.6 9082.3 9079.77 9077.45 9074.95 9072.58 9069.98 9067.36 9064.75 9062.09 9059.33 9056.51 9053.77 9050.96
7547.84 7555.61 7563.34 7570.99 7578.82 7586.54 7594.17 7601.9 7609.64 7617.41 7625.14 7632.75 7640.51 7648.19 7656 7663.63 7671.35 7678.93 7686.67 7694.38 7702.05 7709.77 7717.44 7725.09 7732.79 7740.44 7748.17 7755.86 7763.33 7771.03 7778.71 7786.45 7793.98 7801.71 7809.3 7816.77 7824.32 7832.05 7839.72 7847.25 7854.8 7862.48 7870.13 7877.65 7885.24 7892.74 7900.36 7907.89 7915.29 7922.91 7930.4 7937.87 7945.48 7952.94 7960.31 7968.03 7975.4 7982.85 7990.32 7997.86 8005.31 8012.66 8020.17 8027.56 8034.93 8042.3 8049.77 8057.07 8064.48 8071.86 8079.1 8086.43 8093.79 8101.17 8108.54 8115.61 8123.13 8130.25 8137.5 8144.78 8152.1 8159.18 8166.6 8173.69 8180.87 8187.97 8195.2 8202.33 8209.37 8216.58 8223.73 8230.76 8237.87 8244.78 8251.93 8258.96 8265.99 8272.94 8279.99 8286.96 8293.96 8300.97 8307.83 8314.7 8321.58 8328.5 8335.27 8342.17 8349.06 8355.81 8362.66 8369.51 8376.1 8382.94 8389.63 8396.46 8402.98 8409.66 8416.26 8422.99 8429.64 8436.23 8442.77 8449.32 8455.74 8462.37 8468.83 8475.33 8481.81 8488.25 8494.66 8501.04 8507.45 8513.75 8520.13 8526.42 8532.63 8539.06 8545.21 8551.37 8557.63 8563.81 8570.05 8576.15 8582.21 8588.28 8594.5 8600.46 8606.39 8612.33 8618.25 8624.2 8630.24 8636.02 8641.89 8647.83 8653.53 8659.36 8665.12 8670.83 8676.54 8682.3 8687.75 8693.53 8699.04 8704.58 8710.25 8715.68 8721.11 8726.58 8732.05 8737.45 8742.86 8748.16 8753.43 8758.71 8764 8769.29 8774.39 8779.64 8784.75 8789.77 8794.92 8799.98 8804.99 8809.92 8815.03 8819.85 8824.78 8829.53 8834.38 8839.18 8843.9 8848.59 8853.43 8858.05 8862.7 8867.25 8871.82 8876.31 8880.85 8885.35 8889.72 8894.11 8898.54 8902.81 8907.07 8911.38 8915.63 8919.74 8923.91 8928.17 8932.14 8936.36 8940.22 8944.17 8948.12 8952.07 8955.88 8959.68 8963.48 8967.25 8970.91 8974.69 8978.21 8981.96 8985.46 8989.07 8992.68 8996.01 8999.51 9002.71 9006.07 9009.32 9012.61 9015.8 9018.99 9022.18 9025.33 9028.32 9031.33 9034.35 9037.36 9040.18 9043.06 9045.93 9048.68 9051.46 9054.12 9056.85 9059.47 9062.08 9064.55 9067.09 9069.56 9072.05 9074.37 9076.61 9078.93 9081.21 9083.44 9085.61 9087.7 9089.76 9091.7 9093.77 9095.91 9097.69 9099.62 9101.4 9103.2 9105.03 9106.69 9108.35 9110.05 9111.49 9113.01 9114.53 9115.92 9117.31 9118.77 9120.06 9121.35 9122.54 9123.62 9124.98 9125.9 9127.07 9128.19 9129.15 9129.91 9130.83 9131.65 9132.47 9133.22 9133.86 9134.61 9135.2 9135.85 9136.34 9136.76 9137.21 9137.6 9137.86 9138.28 9138.58 9138.69 9138.86 9139.16 9139.34 9139.24 9139.15 9139.14 9139.1 9139.04 9138.77 9138.48 9138.39 9137.92 9137.69 9137.22 9136.74 9136.31 9135.83 9135.21 9134.56 9133.88 9133.22 9132.46 9131.6 9130.83 9129.93 9128.91 9128.06 9127.09 9125.95 9124.94 9123.8 9122.61 9121.46 9120.13 9118.81 9117.42 9116.05 9114.61 9113.02 9111.55 9109.95 9108.36 9106.59 9105.02 9103.17 9101.35 9099.58 9097.65 9095.77 9093.77 9091.81 9089.87 9087.73 9085.59 9083.42 9081.26 9078.92 9076.63 9074.3 9071.9 9069.54 9067.07 9064.55 9062 9059.42 9056.89 9054.15 9051.52 9048.71 9045.95 9043.1
7543.37 7550.91 7558.78 7566.39 7574.16 7581.9 7589.6 7597.35 7604.86 7612.68 7620.28 7628.04 7635.7 7643.46 7651.17 7658.87 7666.45 7674.22 7681.81 7689.51 7697.25 7704.86 7712.44 7720.12 7727.77 7735.41 7742.99 7750.82 7758.41 7765.96 7773.69 7781.22 7788.95 7796.49 7804.08 7811.82 7819.29 7826.95 7834.53 7842.07 7849.62 7857.24 7864.86 7872.37 7880 7887.46 7895.13 7902.51 7910.14 7917.62 7925.1 7932.71 7940.02 7947.57 7955.02 7962.57 7969.92 7977.39 7984.79 7992.39 7999.73 8007.2 8014.66 8021.96 8029.33 8036.76 8044.17 8051.56 8058.94 8066.06 8073.52 8080.87 8088.14 8095.37 8102.68 8110.04 8117.25 8124.57 8131.77 8139 8146.26 8153.4 8160.66 8167.79 8174.93 8182.1 8189.34 8196.35 8203.56 8210.63 8217.62 8224.79 8231.92 8238.91 8245.94 8253.01 8260.05 8266.94 8273.93 8280.87 8287.77 8294.73 8301.75 8308.56 8315.52 8322.3 8329.12 8335.85 8342.7 8349.63 8356.35 8363.16 8369.93 8376.66 8383.39 8389.93 8396.64 8403.3 8409.96 8416.63 8423.27 8429.65 8436.38 8442.87 8449.34 8455.82 8462.38 8468.93 8475.34 8481.84 8488.2 8494.51 8500.86 8507.13 8513.54 8519.83 8526.09 8532.39 8538.61 8544.75 8550.94 8557.03 8563.19 8569.3 8575.44 8581.43 8587.54 8593.59 8599.53 8605.55 8611.39 8617.35 8623.26 8629.21 8634.92 8640.79 8646.64 8652.4 8658.14 8663.87 8669.51 8675.12 8680.78 8686.33 8692.08 8697.6 8703.13 8708.48 8714.09 8719.48 8724.88 8730.32 8735.63 8740.91 8746.38 8751.56 8756.8 8762.04 8767.21 8772.31 8777.54 8782.6 8787.71 8792.63 8797.77 8802.67 8807.69 8812.54 8817.38 8822.27 8827.09 8831.89 8836.57 8841.22 8845.88 8850.58 8855.24 8859.87 8864.4 8868.82 8873.33 8877.88 8882.13 8886.61 8890.96 8895.37 8899.54 8903.76 8908.04 8912.2 8916.35 8920.43 8924.64 8928.57 8932.5 8936.37 8940.48 8944.33 8948.21 8951.96 8955.77 8959.55 8963.2 8966.85 8970.52 8974.17 8977.68 8981.31 8984.67 8988.15 8991.57 8994.92 8998.24 9001.56 9004.83 9008.07 9011.13 9014.26 9017.31 9020.5 9023.57 9026.49 9029.34 9032.37 9035.11 9037.97 9040.81 9043.52 9046.22 9048.96 9051.5 9054.11 9056.64 9059.15 9061.55 9063.91 9066.22 9068.6 9070.95 9073.17 9075.29 9077.58 9079.71 9081.77 9083.78 9085.83 9087.71 9089.7 9091.49 9093.34 9095.18 9096.87 9098.56 9100.12 9101.8 9103.36 9104.98 9106.49 9107.96 9109.3 9110.72 9111.85 9113.2 9114.42 9115.62 9116.72 9117.9 9118.92 9119.92 9120.88 9121.85 9122.68 9123.56 9124.35 9125.02 9125.78 9126.41 9127.01 9127.69 9128.2 9128.64 9129.03 9129.51 9129.82 9130.11 9130.38 9130.59 9130.82 9130.9 9131.05 9131.04 9131.08 9131.07 9130.86 9130.71 9130.64 9130.45 9130.13 9129.84 9129.46 9129.11 9128.69 9128.13 9127.64 9127.06 9126.5 9125.75 9125.03 9124.3 9123.49 9122.73 9121.81 9120.91 9119.9 9118.84 9117.88 9116.86 9115.62 9114.36 9113.18 9111.9 9110.58 9109.24 9107.82 9106.35 9105 9103.54 9101.81 9100.29 9098.55 9096.91 9095.09 9093.37 9091.51 9089.62 9087.73 9085.84 9083.78 9081.71 9079.71 9077.61 9075.36 9073.18 9070.9 9068.7 9066.39 9063.97 9061.5 9059.03 9056.62 9053.94 9051.49 9048.78 9046.16 9043.53 9040.75 9038.04 9035.12
7538.66 7546.4 7554.02 7561.86 7569.52 7577.19 7584.78 7592.58 7600.2 7607.85 7615.71 7623.2 7630.95 7638.63 7646.25 7653.86 7661.68 7669.33 7677 7684.74 7692.25 7699.96 7707.66 7715.26 7722.97 7730.55 7738.2 7745.77 7753.39 7760.95 7768.7 7776.26 7783.79 7791.5 7799.03 7806.61 7814.26 7821.78 7829.46 7836.94 7844.52 7852.15 7859.61 7867.06 7874.62 7882.26 7889.66 7897.22 7904.71 7912.26 7919.68 7927.22 7934.6 7942.21 7949.68 7957.21 7964.65 7971.97 7979.38 7986.76 7994.2 8001.64 8009.04 8016.45 8023.86 8031.19 8038.6 8045.82 8053.24 8060.46 8067.87 8075.17 8082.5 8089.75 8097.09 8104.31 8111.42 8118.73 8126.03 8133.2 8140.42 8147.59 8154.64 8161.98 8169.11 8176.18 8183.28 8190.49 8197.58 8204.74 8211.7 8218.85 8225.83 8232.96 8239.87 8246.96 8253.94 8260.88 8267.91 8274.78 8281.71 8288.63 8295.45 8302.4 8309.3 8316.08 8322.92 8329.71 8336.58 8343.21 8350.12 8356.8 8363.53 8370.37 8376.85 8383.59 8390.35 8397.05 8403.58 8410.12 8416.72 8423.37 8429.79 8436.33 8442.88 8449.34 8455.89 8462.31 8468.72 8475.11 8481.63 8487.93 8494.22 8500.64 8506.88 8513.16 8519.45 8525.66 8531.83 8537.99 8544.17 8550.32 8556.51 8562.69 8568.65 8574.68 8580.64 8586.75 8592.71 8598.63 8604.56 8610.54 8616.45 8622.28 8628.01 8633.9 8639.71 8645.41 8651.2 8656.88 8662.53 8668.18 8673.8 8679.35 8684.95 8690.52 8695.94 8701.52 8706.96 8712.36 8717.76 8723.09 8728.45 8733.82 8739.15 8744.4 8749.61 8754.76 8759.92 8765.09 8770.14 8775.31 8780.38 8785.35 8790.42 8795.19 8800.22 8805.04 8809.88 8814.8 8819.56 8824.41 8829.1 8833.8 8838.48 8843.18 8847.7 8852.31 8856.84 8861.42 8865.84 8870.42 8874.69 8879.01 8883.41 8887.74 8892.07 8896.19 8900.38 8904.57 8908.61 8912.81 8916.87 8920.85 8924.92 8928.92 8932.64 8936.57 8940.64 8944.35 8948.06 8951.83 8955.45 8959.19 8962.82 8966.32 8969.86 8973.41 8976.94 8980.29 8983.68 8987.04 8990.38 8993.8 8996.94 9000.11 9003.36 9006.36 9009.53 9012.65 9015.59 9018.6 9021.49 9024.45 9027.32 9030.06 9032.88 9035.57 9038.18 9040.82 9043.49 9046.15 9048.6 9051.14 9053.43 9055.91 9058.25 9060.54 9062.88 9065.17 9067.35 9069.49 9071.73 9073.7 9075.77 9077.86 9079.69 9081.59 9083.52 9085.33 9087.11 9088.79 9090.4 9092.12 9093.78 9095.43 9096.73 9098.36 9099.8 9101.15 9102.55 9103.83 9105.11 9106.33 9107.49 9108.62 9109.79 9110.8 9111.76 9112.73 9113.64 9114.57 9115.32 9116.17 9116.95 9117.61 9118.26 9118.89 9119.46 9119.96 9120.42 9120.89 9121.27 9121.6 9122.04 9122.24 9122.38 9122.54 9122.8 9122.87 9122.88 9122.88 9122.8 9122.81 9122.68 9122.49 9122.18 9122.04 9121.67 9121.35 9120.96 9120.5 9119.96 9119.57 9118.88 9118.28 9117.67 9116.96 9116.14 9115.36 9114.54 9113.67 9112.73 9111.78 9110.8 9109.69 9108.7 9107.51 9106.28 9105.03 9103.87 9102.51 9101.24 9099.67 9098.25 9096.9 9095.2 9093.68 9092.14 9090.46 9088.73 9087.02 9085.4 9083.53 9081.52 9079.71 9077.77 9075.77 9073.73 9071.61 9069.56 9067.41 9065.15 9062.94 9060.61 9058.32 9055.92 9053.6 9051.01 9048.59 9046 9043.51 9040.87 9038.31 9035.54 9032.85 9030.05 9027.26
7534.11 7541.73 7549.36 7557.19 7564.7 7572.4 7580.13 7587.83 7595.57 7603.07 7610.93 7618.45 7626.16 7633.77 7641.42 7649.13 7656.77 7664.43 7672.11 7679.71 7687.31 7695.14 7702.58 7710.21 7717.88 7725.41 7733.14 7740.73 7748.34 7756.02 7763.65 7771.21 7778.81 7786.32 7793.86 7801.53 7808.93 7816.6 7824.2 7831.68 7839.34 7846.8 7854.33 7861.88 7869.49 7876.84 7884.29 7891.86 7899.3 7906.94 7914.4 7921.86 7929.38 7936.79 7944.21 7951.63 7959.06 7966.43 7973.83 7981.41 7988.72 7996.09 8003.57 8010.87 8018.21 8025.57 8032.95 8040.22 8047.58 8054.93 8062.23 8069.56 8076.78 8084.01 8091.23 8098.39 8105.79 8113 8120.22 8127.54 8134.54 8141.74 8148.91 8156.04 8163.19 8170.44 8177.41 8184.48 8191.6 8198.59 8205.76 8212.81 8219.79 8226.86 8233.89 8240.78 8247.89 8254.81 8261.72 8268.63 8275.51 8282.47 8289.36 8296.29 8303.07 8309.9 8316.71 8323.51 8330.11 8336.94 8343.8 8350.53 8357.18 8363.74 8370.6 8377.37 8383.99 8390.49 8397.25 8403.67 8410.33 8416.86 8423.42 8429.85 8436.36 8442.82 8449.24 8455.84 8462.19 8468.57 8474.9 8481.39 8487.52 8493.9 8500.21 8506.45 8512.77 8518.94 8525.12 8531.24 8537.48 8543.5 8549.64 8555.83 8561.72 8567.98 8573.93 8579.91 8585.79 8591.86 8597.6 8603.6 8609.52 8615.26 8621.14 8626.91 8632.67 8638.39 8644.26 8649.76 8655.48 8661.04 8666.68 8672.39 8677.92 8683.37 8688.85 8694.29 8699.91 8705.15 8710.56 8715.96 8721.25 8726.7 8731.96 8737.08 8742.55 8747.61 8752.73 8757.85 8762.94 8767.97 8772.99 8778.03 8782.96 8787.97 8792.85 8797.74 8802.63 8807.48 8812.21 8816.97 8821.7 8826.41 8831.06 8835.61 8840.17 8844.97 8849.31 8853.87 8858.38 8862.79 8867.13 8871.48 8875.84 8880.13 8884.47 8888.59 8892.77 8896.93 8901.05 8905.04 8909.23 8913.22 8917.25 8921.22 8925.05 8928.95 8932.75 8936.53 8940.38 8944.11 8947.7 8951.35 8954.96 8958.52 8962.24 8965.68 8969.08 8972.49 8975.81 8979.33 8982.54 8985.77 8989.1 8992.19 8995.41 8998.58 9001.51 9004.58 9007.6 9010.66 9013.55 9016.49 9019.32 9022.13 9024.92 9027.56 9030.27 9032.94 9035.61 9038.04 9040.58 9043.19 9045.48 9047.92 9050.3 9052.61 9054.84 9057.08 9059.35 9061.35 9063.52 9065.57 9067.7 9069.59 9071.52 9073.42 9075.27 9077.15 9078.88 9080.66 9082.43 9083.92 9085.58 9087.13 9088.72 9090.14 9091.62 9092.91 9094.54 9095.64 9096.89 9098.11 9099.35 9100.44 9101.44 9102.65 9103.69 9104.54 9105.49 9106.38 9107.13 9107.92 9108.78 9109.41 9110.1 9110.72 9111.32 9111.8 9112.26 9112.71 9113.08 9113.49 9113.66 9113.95 9114.23 9114.52 9114.57 9114.72 9114.7 9114.55 9114.64 9114.53 9114.38 9114.21 9113.95 9113.69 9113.42 9113.11 9112.66 9112.3 9111.83 9111.28 9110.8 9110.07 9109.5 9108.66 9108 9107.18 9106.42 9105.48 9104.61 9103.62 9102.54 9101.55 9100.5 9099.35 9098.07 9097.02 9095.66 9094.26 9093.01 9091.64 9090.22 9088.77 9087.2 9085.64 9084.01 9082.28 9080.62 9078.89 9077.1 9075.34 9073.39 9071.55 9069.64 9067.66 9065.67 9063.61 9061.45 9059.33 9057.09 9054.86 9052.62 9050.26 9047.81 9045.61 9043.08 9040.64 9037.99 9035.46 9032.87 9030.22 9027.51 9024.89 9022.12 9019.34
7529.37 7537.07 7544.82 7552.36 7560.01 7567.74 7575.29 7583.06 7590.79 7598.45 7605.95 7613.73 7621.28 7628.96 7636.54 7644.23 7651.88 7659.55 7667.12 7674.86 7682.43 7690.01 7697.66 7705.25 7712.74 7720.52 7728.06 7735.85 7743.31 7750.87 7758.45 7766.11 7773.68 7781.19 7788.85 7796.3 7803.96 7811.45 7818.83 7826.54 7833.98 7841.6 7849.01 7856.68 7864.18 7871.6 7879.12 7886.61 7893.96 7901.48 7908.94 7916.31 7923.85 7931.27 7938.84 7946.13 7953.62 7961 7968.33 7975.76 7983.21 7990.55 7997.9 8005.22 8012.74 8019.99 8027.16 8034.54 8041.98 8049.16 8056.46 8063.79 8070.97 8078.29 8085.43 8092.78 8099.91 8107.16 8114.35 8121.54 8128.79 8135.82 8142.96 8150.08 8157.24 8164.27 8171.37 8178.64 8185.62 8192.69 8199.74 8206.87 8213.92 8220.72 8227.78 8234.88 8241.73 8248.77 8255.71 8262.51 8269.39 8276.23 8283.09 8289.94 8296.91 8303.6 8310.43 8317.31 8323.92 8330.68 8337.51 8344.16 8350.99 8357.51 8364.39 8370.98 8377.56 8384.17 8390.8 8397.32 8403.9 8410.39 8416.79 8423.53 8429.8 8436.37 8442.76 8449.3 8455.7 8462.04 8468.44 8474.69 8480.9 8487.27 8493.63 8499.72 8505.97 8512.22 8518.37 8524.62 8530.51 8536.83 8542.87 8548.88 8555.09 8561.09 8566.98 8573.11 8578.99 8584.85 8590.71 8596.58 8602.51 8608.39 8614.15 8619.95 8625.62 8631.51 8637.13 8642.72 8648.5 8654.09 8659.64 8665.23 8670.81 8676.25 8681.78 8687.18 8692.77 8698.09 8703.39 8708.8 8714.13 8719.4 8724.7 8729.92 8735.05 8740.23 8745.45 8750.55 8755.56 8760.7 8765.67 8770.55 8775.59 8780.51 8785.48 8790.38 8795.14 8800.02 8804.71 8809.54 8814.26 8818.89 8823.57 8828.24 8832.77 8837.35 8841.86 8846.25 8850.71 8855.24 8859.62 8863.94 8868.19 8872.56 8876.82 8880.93 8885.16 8889.26 8893.46 8897.57 8901.51 8905.54 8909.45 8913.34 8917.38 8921.22 8925.05 8928.79 8932.61 8936.29 8940.04 8943.65 8947.21 8950.8 8954.18 8957.74 8961.25 8964.71 8968.08 8971.38 8974.81 8978.04 8981.11 8984.3 8987.54 8990.67 8993.62 8996.73 8999.75 9002.65 9005.64 9008.63 9011.37 9014.17 9016.9 9019.69 9022.28 9024.87 9027.46 9030.06 9032.62 9035.04 9037.38 9040 9042.12 9044.54 9046.83 9049.11 9051.16 9053.37 9055.54 9057.55 9059.46 9061.59 9063.48 9065.38 9067.25 9069.06 9070.73 9072.51 9074.19 9075.8 9077.49 9078.96 9080.58 9082.04 9083.52 9084.85 9086.29 9087.43 9088.8 9089.99 9091.06 9092.23 9093.34 9094.36 9095.44 9096.31 9097.21 9098.2 9098.88 9099.73 9100.5 9101.27 9101.85 9102.44 9103.08 9103.52 9104.03 9104.48 9104.89 9105.32 9105.49 9105.77 9105.89 9106.14 9106.27 9106.51 9106.45 9106.54 9106.35 9106.35 9106.15 9105.95 9105.81 9105.57 9105.29 9104.85 9104.47 9104.02 9103.6 9103.09 9102.52 9101.79 9101.3 9100.48 9099.76 9098.93 9098.16 9097.26 9096.31 9095.43 9094.43 9093.36 9092.29 9091.1 9089.93 9088.7 9087.47 9086.17 9084.9 9083.57 9082 9080.63 9078.98 9077.47 9075.77 9074.19 9072.54 9070.82 9068.98 9067.28 9065.33 9063.6 9061.52 9059.52 9057.56 9055.43 9053.42 9051.29 9049.03 9046.79 9044.49 9042.27 9039.81 9037.42 9035.07 9032.53 9029.9 9027.43 9024.93 9022.26 9019.57 9016.91 9014.13 9011.26
7524.83 7532.44 7540.11 7547.66 7555.35 7563.04 7570.69 7578.38 7586.02 7593.53 7601.23 7608.89 7616.53 7624.16 7631.76 7639.39 7647.09 7654.59 7662.2 7669.9 7677.46 7685.08 7692.63 7700.31 7707.84 7715.44 7723.1 7730.6 7738.09 7745.78 7753.38 7760.9 7768.47 7776.16 7783.53 7791.17 7798.67 7806.12 7813.72 7821.26 7828.78 7836.31 7843.87 7851.29 7858.86 7866.24 7873.68 7881.25 7888.64 7896.11 7903.55 7911.05 7918.35 7925.92 7933.3 7940.71 7948.12 7955.55 7962.93 7970.19 7977.59 7984.98 7992.43 7999.7 8007 8014.3 8021.58 8028.98 8036.31 8043.52 8050.63 8057.93 8065.07 8072.39 8079.75 8086.86 8094.13 8101.38 8108.4 8115.7 8122.8 8130.07 8137.21 8144.23 8151.31 8158.5 8165.5 8172.67 8179.65 8186.68 8193.65 8200.73 8207.81 8214.61 8221.79 8228.56 8235.6 8242.58 8249.51 8256.37 8263.15 8269.96 8276.89 8283.75 8290.57 8297.55 8304.24 8310.98 8317.68 8324.44 8331.23 8337.85 8344.61 8351.19 8357.9 8364.55 8371.06 8377.73 8384.31 8390.79 8397.46 8403.74 8410.4 8416.88 8423.35 8429.83 8436.25 8442.64 8449.06 8455.38 8461.71 8468 8474.28 8480.61 8486.82 8492.96 8499.43 8505.41 8511.58 8517.79 8523.85 8529.99 8536.02 8542.13 8548.14 8554.18 8560.12 8566.05 8572.09 8577.97 8583.83 8589.69 8595.6 8601.42 8607.23 8612.91 8618.77 8624.45 8630.12 8635.71 8641.32 8647.03 8652.61 8658.06 8663.66 8669.17 8674.74 8680 8685.41 8690.78 8696.19 8701.56 8706.91 8712.19 8717.46 8722.63 8727.9 8732.96 8738.09 8743.24 8748.32 8753.24 8758.32 8763.31 8768.36 8773.19 8778.02 8782.96 8787.78 8792.6 8797.26 8802 8806.8 8811.55 8816.01 8820.6 8825.24 8829.75 8834.38 8838.76 8843.2 8847.56 8851.96 8856.37 8860.67 8864.83 8869.09 8873.46 8877.52 8881.72 8885.74 8889.8 8893.86 8897.81 8901.72 8905.68 8909.67 8913.41 8917.24 8921.05 8924.72 8928.51 8932.17 8935.8 8939.42 8942.97 8946.46 8949.9 8953.37 8956.79 8960.18 8963.49 8966.72 8970.02 8973.29 8976.58 8979.63 8982.62 8985.79 8988.83 8991.79 8994.76 8997.58 9000.43 9003.3 9006.14 9008.82 9011.54 9014.28 9016.91 9019.41 9022.03 9024.44 9027.04 9029.42 9031.79 9034.18 9036.47 9038.62 9040.93 9042.99 9045.27 9047.29 9049.33 9051.42 9053.57 9055.33 9057.21 9059.18 9060.85 9062.64 9064.33 9066.06 9067.7 9069.33 9070.78 9072.33 9073.85 9075.2 9076.56 9078.08 9079.3 9080.54 9081.71 9082.92 9083.97 9085.22 9086.25 9087.15 9088.17 9089.07 9089.92 9090.72 9091.58 9092.29 9093.04 9093.64 9094.31 9094.87 9095.34 9095.85 9096.23 9096.62 9096.97 9097.21 9097.55 9097.72 9097.93 9097.99 9098.15 9098.26 9098.21 9098.11 9098.01 9097.83 9097.7 9097.53 9097.34 9096.94 9096.6 9096.29 9095.8 9095.34 9094.68 9094.23 9093.66 9093.06 9092.25 9091.51 9090.77 9089.9 9089.04 9088.23 9087.21 9086.2 9085.18 9084.03 9083.01 9081.79 9080.54 9079.3 9078 9076.73 9075.29 9073.91 9072.36 9070.79 9069.19 9067.7 9066.01 9064.42 9062.74 9060.89 9059.04 9057.32 9055.42 9053.4 9051.43 9049.38 9047.47 9045.23 9043.17 9040.99 9038.71 9036.46 9034.12 9031.78 9029.44 9026.97 9024.53 9022.04 9019.38 9016.92 9014.29 9011.59 9008.74 9006.15 9003.36
7520.05 7527.64 7535.43 7542.95 7550.61 7558.31 7565.88 7573.55 7581.19 7588.69 7596.4 7604 7611.62 7619.43 7626.89 7634.54 7642.13 7649.67 7657.36 7664.94 7672.46 7680.18 7687.68 7695.34 7702.76 7710.54 7718.1 7725.55 7733.26 7740.69 7748.32 7755.73 7763.45 7770.97 7778.44 7785.95 7793.44 7801.09 7808.45 7815.99 7823.61 7830.95 7838.45 7846.05 7853.55 7860.95 7868.4 7875.82 7883.31 7890.8 7898.25 7905.49 7913.05 7920.38 7927.86 7935.25 7942.46 7949.91 7957.25 7964.69 7972.13 7979.45 7986.71 7993.83 8001.34 8008.69 8015.97 8023.21 8030.62 8037.73 8044.98 8052.22 8059.53 8066.65 8073.93 8081.16 8088.26 8095.47 8102.7 8109.79 8117 8124.05 8131.15 8138.47 8145.33 8152.42 8159.52 8166.66 8173.69 8180.78 8187.69 8194.63 8201.58 8208.58 8215.62 8222.52 8229.58 8236.47 8243.28 8250.06 8257.09 8263.8 8270.66 8277.49 8284.24 8291.14 8297.88 8304.73 8311.46 8318.12 8324.83 8331.62 8338.22 8344.81 8351.46 8358.02 8364.77 8371.33 8377.71 8384.37 8390.91 8397.35 8403.81 8410.29 8416.67 8423.24 8429.58 8435.86 8442.47 8448.7 8455.02 8461.38 8467.6 8473.89 8480.13 8486.42 8492.57 8498.75 8504.85 8511.07 8517.16 8523.26 8529.23 8535.3 8541.3 8547.26 8553.28 8559.19 8565.15 8570.99 8576.91 8582.81 8588.53 8594.36 8600.18 8605.94 8611.65 8617.31 8623.02 8628.66 8634.22 8639.93 8645.31 8651.03 8656.52 8662.07 8667.41 8672.92 8678.21 8683.71 8688.99 8694.26 8699.63 8704.83 8710.01 8715.26 8720.47 8725.77 8730.86 8735.86 8740.92 8746 8750.9 8755.88 8760.89 8765.67 8770.7 8775.42 8780.35 8785.1 8789.82 8794.61 8799.31 8803.78 8808.5 8813.18 8817.76 8822.22 8826.68 8831.19 8835.54 8840.06 8844.33 8848.69 8852.94 8857.33 8861.46 8865.59 8869.84 8873.94 8878.01 8882.08 8886.13 8890.07 8894.01 8897.84 8901.89 8905.64 8909.44 8913.18 8916.94 8920.78 8924.4 8927.85 8931.45 8935.09 8938.7 8942.16 8945.51 8948.83 8952.25 8955.57 8958.8 8962.07 8965.29 8968.39 8971.69 8974.76 8977.75 8980.74 8983.7 8986.72 8989.55 8992.43 8995.29 8998.06 9000.82 9003.55 9006.3 9008.76 9011.46 9013.99 9016.46 9018.98 9021.37 9023.76 9025.99 9028.41 9030.56 9032.71 9035.03 9037.11 9039.18 9041.32 9043.42 9045.28 9047.12 9049.11 9050.87 9052.78 9054.54 9056.19 9057.85 9059.49 9061.04 9062.59 9063.99 9065.64 9067.15 9068.53 9069.72 9070.96 9072.31 9073.65 9074.79 9075.79 9076.94 9077.91 9079.05 9079.9 9080.83 9081.77 9082.52 9083.38 9084 9084.63 9085.4 9086.03 9086.58 9087.13 9087.47 9087.98 9088.36 9088.74 9088.95 9089.18 9089.42 9089.6 9089.75 9089.87 9089.94 9090.06 9089.92 9089.74 9089.7 9089.53 9089.43 9088.94 9088.67 9088.3 9087.97 9087.54 9087 9086.49 9086.05 9085.39 9084.65 9084.09 9083.31 9082.46 9081.6 9080.85 9079.84 9079.01 9077.99 9076.89 9075.81 9074.73 9073.56 9072.29 9071.09 9069.75 9068.43 9067.06 9065.64 9064.11 9062.69 9061.13 9059.61 9057.91 9056.28 9054.51 9052.63 9050.92 9049.13 9047.2 9045.31 9043.24 9041.3 9039.21 9037.16 9035.03 9032.8 9030.57 9028.43 9025.99 9023.74 9021.3 9018.93 9016.4 9013.89 9011.37 9008.8 9006.24 9003.37 9000.78 8998.16 8995.17
7515.36 7522.97 7530.7 7538.28 7545.83 7553.5 7561.17 7568.69 7576.28 7583.9 7591.56 7599.13 7606.8 7614.35 7622.07 7629.63 7637.2 7644.71 7652.36 7660 7667.51 7675.08 7682.72 7690.24 7697.84 7705.42 7712.95 7720.5 7728.05 7735.62 7743.1 7750.65 7758.22 7765.76 7773.33 7780.67 7788.24 7795.71 7803.34 7810.73 7818.24 7825.56 7833.07 7840.58 7848.05 7855.65 7862.91 7870.46 7877.79 7885.32 7892.83 7899.94 7907.5 7914.94 7922.26 7929.76 7937.05 7944.42 7951.71 7959.11 7966.42 7973.82 7981.26 7988.35 7995.76 8002.97 8010.27 8017.55 8024.74 8032.15 8039.18 8046.51 8053.76 8060.87 8068.22 8075.3 8082.56 8089.79 8096.78 8103.98 8111 8118.07 8125.25 8132.34 8139.53 8146.52 8153.49 8160.66 8167.55 8174.53 8181.58 8188.66 8195.58 8202.56 8209.36 8216.37 8223.39 8230.19 8237.17 8243.96 8250.86 8257.65 8264.51 8271.25 8278.02 8284.75 8291.54 8298.28 8305.03 8311.81 8318.55 8325.13 8331.8 8338.42 8345 8351.62 8358.18 8364.72 8371.24 8377.78 8384.4 8390.76 8397.34 8403.81 8410.18 8416.61 8422.97 8429.34 8435.68 8442.14 8448.49 8454.6 8461.01 8467.21 8473.3 8479.53 8485.84 8491.93 8498.16 8504.16 8510.26 8516.48 8522.56 8528.39 8534.47 8540.35 8546.4 8552.27 8558.25 8564.15 8569.93 8575.71 8581.51 8587.28 8593.19 8598.81 8604.56 8610.31 8615.92 8621.61 8627.19 8632.72 8638.33 8643.81 8649.34 8654.85 8660.28 8665.67 8671 8676.41 8681.73 8687.05 8692.38 8697.64 8702.85 8708.05 8713.18 8718.4 8723.44 8728.5 8733.51 8738.59 8743.54 8748.54 8753.41 8758.28 8763.19 8768.03 8772.88 8777.56 8782.38 8787.06 8791.77 8796.48 8800.95 8805.55 8810.15 8814.57 8819.24 8823.59 8827.97 8832.37 8836.81 8841.06 8845.37 8849.57 8853.68 8857.87 8862.12 8866.25 8870.29 8874.29 8878.38 8882.32 8886.23 8890.14 8894.06 8897.85 8901.73 8905.38 8909.04 8912.88 8916.44 8919.96 8923.64 8927.2 8930.75 8934.23 8937.66 8940.96 8944.41 8947.6 8950.97 8954.11 8957.36 8960.59 8963.64 8966.74 8969.83 8972.83 8975.71 8978.63 8981.45 8984.36 8987.19 8990.02 8992.75 8995.48 8998.08 9000.76 9003.44 9005.9 9008.34 9010.8 9013.19 9015.54 9017.89 9020.28 9022.36 9024.66 9026.82 9029.08 9031.04 9033.09 9035.19 9037.16 9039.11 9040.81 9042.75 9044.65 9046.3 9048.08 9049.68 9051.29 9052.85 9054.43 9055.93 9057.29 9058.74 9060.16 9061.47 9062.89 9064.05 9065.34 9066.45 9067.59 9068.57 9069.69 9070.72 9071.66 9072.59 9073.51 9074.24 9074.94 9075.72 9076.53 9077.1 9077.64 9078.2 9078.71 9079.14 9079.64 9080.04 9080.34 9080.79 9080.94 9081.14 9081.31 9081.52 9081.54 9081.7 9081.62 9081.6 9081.55 9081.39 9081.15 9080.98 9080.7 9080.4 9080.11 9079.72 9079.29 9078.81 9078.21 9077.72 9077.03 9076.52 9075.66 9074.94 9074.23 9073.47 9072.57 9071.66 9070.62 9069.67 9068.61 9067.48 9066.42 9065.37 9064.15 9062.76 9061.58 9060.24 9058.88 9057.54 9055.92 9054.52 9052.93 9051.29 9049.7 9048.08 9046.35 9044.6 9042.66 9040.91 9038.95 9037.18 9035.19 9033.09 9031.03 9029.07 9026.9 9024.67 9022.58 9020.15 9017.99 9015.62 9013.15 9010.71 9008.28 9005.93 9003.28 9000.77 8998.14 8995.49 8992.8 8990.04 8987.24
7510.67 7518.31 7525.81 7533.48 7541.13 7548.68 7556.23 7563.92 7571.51 7579.06 7586.66 7594.25 7601.79 7609.5 7617.1 7624.55 7632.31 7639.8 7647.43 7655.04 7662.38 7670.06 7677.53 7685.14 7692.74 7700.29 7707.85 7715.36 7722.9 7730.59 7738.01 7745.51 7752.91 7760.47 7768.04 7775.57 7783.06 7790.55 7797.88 7805.44 7812.79 7820.43 7827.86 7835.32 7842.7 7850.26 7857.54 7865 7872.4 7879.9 7887.3 7894.73 7902.06 7909.35 7916.76 7924.16 7931.54 7938.86 7946.24 7953.41 7960.78 7968.16 7975.55 7982.78 7990.01 7997.31 8004.61 8011.86 8019.06 8026.38 8033.59 8040.65 8047.81 8055.1 8062.23 8069.45 8076.55 8083.79 8090.8 8097.97 8105.05 8112.19 8119.32 8126.39 8133.44 8140.49 8147.48 8154.55 8161.62 8168.56 8175.57 8182.55 8189.42 8196.41 8203.28 8210.19 8217.18 8224.04 8230.96 8237.72 8244.58 8251.29 8258.17 8264.98 8271.73 8278.54 8285.26 8292.02 8298.61 8305.46 8311.96 8318.63 8325.37 8331.94 8338.59 8345.18 8351.75 8358.38 8364.74 8371.3 8377.86 8384.24 8390.74 8397.3 8403.57 8409.85 8416.27 8422.72 8429.07 8435.42 8441.62 8447.99 8454.15 8460.44 8466.57 8472.86 8479.1 8485.29 8491.26 8497.34 8503.38 8509.48 8515.51 8521.6 8527.48 8533.45 8539.49 8545.29 8551.37 8557.1 8562.9 8568.88 8574.53 8580.33 8586.28 8591.78 8597.62 8603.17 8608.98 8614.51 8620 8625.56 8631.07 8636.58 8642.21 8647.78 8653.07 8658.54 8663.96 8669.26 8674.51 8679.82 8685.01 8690.29 8695.49 8700.68 8705.92 8711.03 8716.04 8721.11 8726.14 8731.12 8736.02 8740.98 8746.1 8750.9 8755.69 8760.63 8765.37 8770.19 8774.91 8779.48 8784.15 8788.76 8793.52 8798 8802.46 8807.03 8811.58 8815.94 8820.36 8824.67 8828.96 8833.33 8837.52 8841.9 8846.14 8850.29 8854.39 8858.56 8862.57 8866.64 8870.52 8874.58 8878.54 8882.38 8886.3 8890.11 8893.84 8897.5 8901.32 8904.86 8908.63 8912.22 8915.69 8919.4 8922.73 8926.3 8929.71 8933.05 8936.37 8939.72 8942.97 8946.09 8949.41 8952.64 8955.65 8958.71 8961.69 8964.73 8967.7 8970.67 8973.49 8976.45 8979.31 8981.95 8984.74 8987.41 8990.07 8992.59 8995.21 8997.7 9000.19 9002.67 9005.11 9007.44 9009.7 9012.08 9014.25 9016.52 9018.64 9020.79 9022.97 9024.95 9026.86 9028.93 9030.71 9032.72 9034.53 9036.33 9038.07 9039.76 9041.37 9043.11 9044.7 9046.17 9047.56 9049.08 9050.54 9051.94 9053.25 9054.66 9055.82 9057.01 9058.21 9059.25 9060.29 9061.43 9062.37 9063.26 9064.32 9065.11 9065.95 9066.7 9067.48 9068.16 9068.75 9069.29 9069.99 9070.49 9071.02 9071.36 9071.69 9072.08 9072.5 9072.65 9072.8 9073.08 9073.27 9073.33 9073.27 9073.37 9073.29 9073.21 9073.07 9072.89 9072.67 9072.32 9071.96 9071.8 9071.4 9071.03 9070.51 9069.99 9069.37 9068.73 9068.14 9067.52 9066.61 9065.92 9065.14 9064.25 9063.33 9062.4 9061.34 9060.36 9059.3 9058.16 9057.05 9055.86 9054.55 9053.33 9051.97 9050.48 9049.26 9047.7 9046.18 9044.52 9043.11 9041.35 9039.87 9038.06 9036.38 9034.46 9032.65 9030.86 9028.88 9027.05 9024.83 9022.82 9020.81 9018.66 9016.59 9014.34 9012.12 9009.82 9007.47 9005.07 9002.79 9000.22 8997.79 8995.17 8992.62 8990 8987.39 8984.63 8982.04 8979.14
7505.91 7513.53 7521.13 7528.67 7536.34 7543.94 7551.45 7559.08 7566.64 7574.2 7581.74 7589.37 7596.95 7604.58 7612.14 7619.58 7627.27 7634.75 7642.38 7649.97 7657.48 7665 7672.64 7680.26 7687.55 7695.2 7702.68 7710.34 7717.66 7725.31 7732.81 7740.31 7747.78 7755.23 7762.8 7770.22 7777.74 7785.25 7792.63 7800.07 7807.61 7815.02 7822.47 7829.88 7837.35 7844.8 7852.15 7859.64 7867.03 7874.44 7881.79 7889.17 7896.51 7903.89 7911.23 7918.7 7925.92 7933.32 7940.61 7947.96 7955.28 7962.45 7969.8 7977.04 7984.39 7991.58 7998.82 8006.06 8013.3 8020.48 8027.71 8034.98 8042.14 8049.33 8056.39 8063.51 8070.68 8077.94 8085.02 8092.04 8099.1 8106.31 8113.32 8120.43 8127.42 8134.53 8141.56 8148.55 8155.46 8162.55 8169.45 8176.37 8183.34 8190.29 8197.1 8204 8210.97 8217.87 8224.76 8231.51 8238.38 8245.11 8251.91 8258.64 8265.53 8272.18 8278.86 8285.63 8292.21 8299.01 8305.73 8312.36 8318.87 8325.54 8332.03 8338.61 8345.25 8351.73 8358.3 8364.79 8371.26 8377.66 8384.16 8390.51 8397.04 8403.31 8409.6 8416 8422.36 8428.67 8434.84 8441.2 8447.44 8453.65 8459.86 8465.99 8472.17 8478.36 8484.37 8490.51 8496.56 8502.52 8508.76 8514.57 8520.66 8526.53 8532.37 8538.36 8544.22 8550.06 8555.9 8561.83 8567.6 8573.23 8579.01 8584.73 8590.39 8596.13 8601.69 8607.2 8612.93 8618.43 8624.08 8629.49 8634.91 8640.47 8645.83 8651.24 8656.54 8661.94 8667.24 8672.57 8677.75 8683.11 8688.07 8693.41 8698.49 8703.55 8708.76 8713.75 8718.69 8723.82 8728.82 8733.63 8738.46 8743.34 8748.32 8752.94 8757.84 8762.56 8767.27 8771.9 8776.58 8781.31 8785.75 8790.38 8794.92 8799.45 8803.91 8808.29 8812.63 8817.17 8821.38 8825.64 8829.92 8834.21 8838.37 8842.59 8846.68 8850.71 8854.76 8858.85 8862.75 8866.82 8870.6 8874.67 8878.39 8882.35 8885.96 8889.67 8893.36 8897.07 8900.79 8904.42 8907.89 8911.43 8914.94 8918.34 8921.56 8925 8928.47 8931.7 8935.02 8938.16 8941.31 8944.47 8947.66 8950.74 8953.71 8956.69 8959.68 8962.59 8965.49 8968.22 8971.11 8973.96 8976.56 8979.29 8981.86 8984.56 8987.05 8989.61 8992 8994.63 8996.93 8999.28 9001.58 9003.99 9006.1 9008.33 9010.39 9012.52 9014.76 9016.71 9018.82 9020.58 9022.64 9024.49 9026.23 9028.11 9029.9 9031.49 9033.28 9034.9 9036.56 9038.06 9039.48 9040.82 9042.39 9043.78 9044.95 9046.26 9047.56 9048.75 9049.95 9051.11 9052.12 9053.05 9054.05 9054.93 9055.95 9056.77 9057.62 9058.4 9059.14 9059.78 9060.47 9061.11 9061.61 9062.16 9062.62 9063.01 9063.36 9063.79 9064.11 9064.37 9064.66 9064.74 9064.83 9064.93 9065.02 9064.95 9064.89 9064.76 9064.82 9064.5 9064.32 9064.13 9063.84 9063.38 9063.12 9062.71 9062.11 9061.52 9061.08 9060.48 9059.76 9059.12 9058.33 9057.59 9056.76 9055.9 9055.03 9054.06 9053.06 9052.13 9051.05 9049.85 9048.66 9047.55 9046.29 9045.02 9043.65 9042.43 9040.9 9039.48 9037.93 9036.46 9034.87 9033.18 9031.58 9029.78 9028.13 9026.34 9024.39 9022.49 9020.64 9018.74 9016.72 9014.71 9012.67 9010.46 9008.34 9006.21 9003.83 9001.58 8999.33 8996.81 8994.6 8992.15 8989.62 8987.11 8984.54 8981.86 8979.26 8976.64 8973.74 8971.15
7501.16 7508.81 7516.26 7523.89 7531.5 7539.16 7546.73 7554.27 7561.76 7569.25 7576.86 7584.38 7592.01 7599.56 7607.06 7614.62 7622.35 7629.93 7637.35 7644.84 7652.48 7659.94 7667.59 7675.04 7682.59 7690.13 7697.67 7705.18 7712.69 7720.11 7727.64 7735.14 7742.61 7750 7757.59 7764.95 7772.55 7779.98 7787.33 7794.76 7802.22 7809.63 7817.13 7824.54 7832 7839.38 7846.77 7854.21 7861.56 7868.93 7876.2 7883.62 7890.95 7898.35 7905.61 7913 7920.39 7927.58 7934.92 7942.24 7949.58 7956.72 7964.04 7971.27 7978.52 7985.76 7993.08 8000.4 8007.52 8014.75 8021.95 8029.14 8036.31 8043.43 8050.68 8057.7 8064.77 8072.04 8079.13 8086.14 8093.24 8100.44 8107.36 8114.43 8121.29 8128.39 8135.45 8142.47 8149.36 8156.47 8163.28 8170.25 8177.27 8184.09 8191.07 8197.92 8204.79 8211.63 8218.49 8225.22 8232.08 8238.79 8245.62 8252.41 8259.16 8265.83 8272.54 8279.29 8285.95 8292.51 8299.13 8305.94 8312.47 8319.11 8325.7 8332.21 8338.71 8345.23 8351.75 8358.15 8364.67 8371.14 8377.45 8384 8390.34 8396.7 8402.94 8409.48 8415.64 8422.01 8428.23 8434.49 8440.56 8446.94 8453.14 8459.21 8465.24 8471.61 8477.49 8483.64 8489.82 8495.77 8501.84 8507.74 8513.62 8519.74 8525.49 8531.29 8537.26 8543.21 8548.97 8554.77 8560.49 8566.21 8571.88 8577.74 8583.4 8588.99 8594.54 8600.19 8605.77 8611.41 8616.77 8622.32 8627.79 8633.2 8638.5 8643.88 8649.33 8654.56 8659.91 8665.09 8670.44 8675.61 8680.71 8685.93 8691.06 8696.15 8701.31 8706.32 8711.38 8716.29 8721.15 8726.14 8730.95 8735.93 8740.78 8745.58 8750.38 8755.07 8759.7 8764.36 8769.03 8773.64 8778.24 8782.84 8787.23 8791.71 8796.18 8800.53 8805.08 8809.45 8813.64 8818.08 8822.17 8826.43 8830.65 8834.75 8838.83 8842.92 8847.03 8851.02 8855.04 8858.91 8862.81 8866.74 8870.52 8874.36 8878.16 8881.8 8885.51 8889.23 8892.8 8896.38 8899.94 8903.41 8906.98 8910.34 8913.82 8917.2 8920.44 8923.76 8926.98 8930.23 8933.45 8936.57 8939.72 8942.61 8945.66 8948.71 8951.59 8954.47 8957.47 8960.25 8963.12 8965.81 8968.54 8971.18 8973.87 8976.49 8978.95 8981.51 8984.03 8986.42 8988.74 8991.21 8993.4 8995.72 8998 9000.11 9002.23 9004.39 9006.44 9008.51 9010.58 9012.45 9014.43 9016.25 9018.07 9019.88 9021.64 9023.35 9024.93 9026.65 9028.16 9029.68 9031.18 9032.55 9034.03 9035.34 9036.66 9038.07 9039.18 9040.48 9041.54 9042.71 9043.76 9044.81 9045.88 9046.65 9047.61 9048.48 9049.25 9050.06 9050.79 9051.46 9052.07 9052.68 9053.35 9053.79 9054.27 9054.65 9055.05 9055.43 9055.68 9056.09 9056.21 9056.36 9056.44 9056.6 9056.63 9056.49 9056.64 9056.52 9056.4 9056.29 9056.02 9055.65 9055.43 9055.04 9054.78 9054.28 9053.79 9053.37 9052.71 9052.09 9051.47 9050.69 9050.05 9049.29 9048.48 9047.63 9046.81 9045.76 9044.77 9043.68 9042.67 9041.61 9040.52 9039.18 9037.96 9036.66 9035.37 9033.98 9032.65 9031.17 9029.7 9028.07 9026.54 9024.91 9023.28 9021.6 9019.82 9017.94 9016.23 9014.26 9012.49 9010.49 9008.52 9006.39 9004.45 9002.25 9000.09 8997.92 8995.7 8993.42 8991.17 8988.69 8986.39 8983.9 8981.43 8978.92 8976.47 8973.77 8971.21 8968.48 8965.82 8962.99
7496.44 7504.11 7511.54 7519.09 7526.77 7534.31 7541.78 7549.34 7556.81 7564.47 7572 7579.63 7587.12 7594.61 7602.34 7609.81 7617.34 7624.77 7632.33 7639.82 7647.4 7654.98 7662.56 7669.98 7677.49 7684.91 7692.38 7699.98 7707.4 7714.84 7722.37 7729.86 7737.32 7744.87 7752.29 7759.8 7767.22 7774.69 7781.94 7789.48 7796.92 7804.2 7811.75 7819.06 7826.51 7833.88 7841.27 7848.67 7856.07 7863.4 7870.79 7878.1 7885.45 7892.81 7900.25 7907.4 7914.78 7922.11 7929.52 7936.65 7944.09 7951.07 7958.45 7965.68 7972.82 7980.11 7987.36 7994.6 8001.74 8008.97 8016.1 8023.29 8030.53 8037.5 8044.71 8051.79 8058.82 8065.99 8073.25 8080.15 8087.24 8094.38 8101.24 8108.35 8115.34 8122.36 8129.35 8136.3 8143.33 8150.32 8157.24 8164.21 8171.02 8177.99 8184.78 8191.67 8198.51 8205.29 8212.29 8218.93 8225.73 8232.53 8239.34 8246.09 8252.68 8259.48 8266.14 8272.91 8279.53 8286.15 8292.88 8299.49 8305.94 8312.61 8319.07 8325.54 8332.13 8338.64 8345.16 8351.63 8358.07 8364.43 8370.94 8377.26 8383.71 8389.99 8396.45 8402.59 8408.97 8415.26 8421.4 8427.74 8433.81 8440.12 8446.36 8452.5 8458.58 8464.6 8470.58 8476.83 8482.73 8488.86 8494.77 8500.81 8506.73 8512.69 8518.6 8524.54 8530.25 8536.11 8541.81 8547.68 8553.41 8559.11 8564.92 8570.52 8576.28 8581.81 8587.41 8592.95 8598.52 8604.14 8609.57 8614.96 8620.53 8625.94 8631.3 8636.72 8641.99 8647.34 8652.56 8657.87 8662.99 8668.3 8673.45 8678.67 8683.66 8688.81 8693.85 8698.89 8703.91 8708.82 8713.81 8718.59 8723.4 8728.37 8733.17 8737.99 8742.69 8747.46 8752.13 8756.79 8761.47 8765.95 8770.73 8775.17 8779.57 8784.04 8788.51 8792.95 8797.35 8801.76 8806.01 8810.34 8814.53 8818.62 8822.85 8826.94 8831.08 8835.14 8839.19 8843.19 8847.1 8851.1 8855.04 8858.91 8862.76 8866.47 8870.17 8874.06 8877.69 8881.27 8884.86 8888.47 8891.91 8895.44 8898.99 8902.37 8905.76 8909.08 8912.45 8915.74 8919.03 8922.19 8925.41 8928.42 8931.62 8934.63 8937.58 8940.57 8943.66 8946.52 8949.41 8952.11 8955.04 8957.62 8960.34 8963.09 8965.6 8968.24 8970.79 8973.26 8975.72 8978.24 8980.64 8982.98 8985.28 8987.5 8989.71 8992 8994.09 8996.11 8998.26 9000.22 9002.26 9004.21 9006.14 9007.99 9009.76 9011.54 9013.26 9014.96 9016.76 9018.24 9019.86 9021.42 9022.93 9024.21 9025.68 9027.12 9028.38 9029.62 9030.8 9032.14 9033.3 9034.37 9035.36 9036.52 9037.42 9038.36 9039.18 9040.25 9040.94 9041.7 9042.43 9043.05 9043.75 9044.36 9044.9 9045.43 9045.97 9046.37 9046.72 9047.03 9047.34 9047.62 9047.94 9047.97 9048.11 9048.21 9048.31 9048.21 9048.13 9048.12 9048.02 9047.75 9047.71 9047.38 9047.16 9046.68 9046.32 9045.81 9045.42 9044.96 9044.36 9043.75 9043.05 9042.44 9041.63 9040.93 9040.09 9039.15 9038.25 9037.38 9036.47 9035.38 9034.34 9033.19 9032.07 9030.88 9029.63 9028.34 9027.06 9025.72 9024.26 9022.86 9021.33 9019.91 9018.29 9016.67 9014.94 9013.12 9011.56 9009.81 9007.85 9006.14 9004.24 9002.34 9000.3 8998.27 8996.17 8994.09 8991.84 8989.72 8987.59 8985.28 8982.95 8980.66 8978.27 8975.75 8973.24 8970.87 8968.24 8965.63 8963.01 8960.38 8957.67 8954.97
7491.58 7499.19 7506.81 7514.35 7521.85 7529.47 7537.01 7544.44 7552.05 7559.58 7567.16 7574.77 7582.17 7589.73 7597.26 7604.74 7612.3 7619.79 7627.26 7634.79 7642.34 7649.79 7657.35 7664.76 7672.38 7679.86 7687.3 7694.76 7702.27 7709.74 7717.2 7724.64 7732.1 7739.56 7746.97 7754.39 7761.69 7769.29 7776.74 7784.09 7791.54 7798.94 7806.23 7813.65 7821.1 7828.49 7835.87 7843.27 7850.55 7857.92 7865.18 7872.59 7879.82 7887.23 7894.58 7901.85 7909.09 7916.51 7923.68 7930.97 7938.23 7945.43 7952.68 7959.91 7967.18 7974.43 7981.64 7988.81 7995.97 8003.14 8010.13 8017.39 8024.53 8031.59 8038.83 8045.96 8052.99 8060.05 8067.17 8074.14 8081.3 8088.33 8095.36 8102.45 8109.35 8116.25 8123.2 8130.22 8137.21 8144.14 8151.05 8158.05 8164.9 8171.68 8178.68 8185.37 8192.27 8199.04 8205.86 8212.6 8219.45 8226.16 8232.91 8239.78 8246.32 8253.06 8259.71 8266.55 8273.01 8279.68 8286.16 8292.87 8299.53 8306 8312.57 8319.08 8325.6 8332.06 8338.62 8345.06 8351.51 8357.91 8364.27 8370.66 8376.99 8383.43 8389.64 8395.85 8402.2 8408.37 8414.66 8420.91 8427.07 8433.23 8439.5 8445.67 8451.64 8457.75 8463.78 8469.83 8476 8481.88 8487.93 8493.84 8499.76 8505.64 8511.58 8517.34 8523.2 8529.06 8534.76 8540.61 8546.29 8552.03 8557.69 8563.41 8569.12 8574.74 8580.35 8585.76 8591.4 8596.86 8602.4 8607.82 8613.23 8618.62 8624.04 8629.3 8634.73 8639.96 8645.32 8650.33 8655.72 8660.95 8666.07 8671.09 8676.25 8681.34 8686.41 8691.42 8696.39 8701.33 8706.29 8711.27 8715.99 8720.8 8725.57 8730.4 8735.14 8739.91 8744.59 8749.22 8753.74 8758.43 8762.99 8767.51 8771.97 8776.44 8780.83 8785.24 8789.61 8793.88 8798.16 8802.42 8806.72 8810.97 8814.96 8819.32 8823.19 8827.35 8831.35 8835.33 8839.29 8843.19 8847.08 8851.04 8854.73 8858.58 8862.31 8866 8869.63 8873.28 8876.91 8880.54 8884.05 8887.46 8891.1 8894.34 8897.74 8901.09 8904.38 8907.56 8910.95 8914.11 8917.34 8920.45 8923.53 8926.44 8929.59 8932.62 8935.48 8938.38 8941.22 8944.08 8946.73 8949.56 8952.34 8954.94 8957.48 8960.1 8962.56 8965.13 8967.57 8969.94 8972.36 8974.77 8977.04 8979.38 8981.43 8983.61 8985.78 8987.95 8989.9 8991.98 8993.93 8995.98 8997.82 8999.74 9001.51 9003.35 9004.98 9006.7 9008.35 9009.91 9011.54 9013.09 9014.53 9015.91 9017.47 9018.67 9020.03 9021.32 9022.51 9023.79 9024.8 9025.97 9027.08 9028.13 9029.03 9030.04 9031.02 9031.75 9032.53 9033.29 9034.08 9034.75 9035.35 9035.93 9036.45 9037.12 9037.56 9037.94 9038.37 9038.6 9038.92 9039.27 9039.45 9039.57 9039.64 9039.83 9039.74 9039.91 9039.85 9039.74 9039.58 9039.38 9039.13 9038.97 9038.67 9038.37 9037.9 9037.55 9037.02 9036.53 9036.01 9035.22 9034.72 9034.02 9033.37 9032.57 9031.78 9030.94 9030.05 9029.07 9028.16 9027.17 9026.07 9024.81 9023.82 9022.48 9021.28 9020.05 9018.68 9017.39 9016.02 9014.48 9013.01 9011.51 9009.97 9008.4 9006.81 9005.07 9003.26 9001.54 8999.77 8997.77 8995.94 8994.02 8992.09 8989.97 8987.84 8985.79 8983.6 8981.46 8979.29 8976.99 8974.68 8972.37 8970.04 8967.53 8965.1 8962.54 8960.11 8957.51 8954.89 8952.21 8949.48 8946.75
7486.84 7494.4 7501.9 7509.44 7516.91 7524.52 7532.1 7539.56 7547.16 7554.63 7562.18 7569.61 7577.24 7584.64 7592.19 7599.76 7607.23 7614.81 7622.35 7629.72 7637.26 7644.84 7652.19 7659.65 7667.24 7674.62 7682.17 7689.59 7696.95 7704.56 7711.96 7719.52 7726.77 7734.23 7741.7 7748.98 7756.46 7763.94 7771.27 7778.76 7786.12 7793.53 7800.94 7808.34 7815.65 7823.05 7830.41 7837.78 7844.93 7852.35 7859.85 7867.03 7874.53 7881.59 7888.92 7896.29 7903.61 7910.79 7918.03 7925.21 7932.48 7939.76 7947.01 7954.21 7961.37 7968.55 7975.86 7982.85 7990.03 7997.19 8004.55 8011.55 8018.65 8025.76 8032.89 8039.95 8047.03 8054.12 8061.17 8068.23 8075.24 8082.25 8089.3 8096.33 8103.19 8110.29 8117.15 8124.22 8130.99 8137.93 8144.91 8151.8 8158.68 8165.48 8172.32 8179.19 8186.03 8192.79 8199.57 8206.29 8213.07 8219.84 8226.51 8233.2 8239.93 8246.69 8253.45 8260.04 8266.58 8273.08 8279.93 8286.43 8292.88 8299.56 8306.09 8312.48 8319.01 8325.48 8331.86 8338.48 8344.72 8351.19 8357.64 8363.98 8370.18 8376.66 8382.88 8389.15 8395.55 8401.62 8407.93 8414.02 8420.34 8426.41 8432.58 8438.79 8444.79 8450.83 8456.94 8463.02 8468.98 8474.87 8480.8 8486.88 8492.75 8498.62 8504.55 8510.38 8516.21 8521.97 8527.7 8533.41 8539.23 8544.95 8550.6 8556.32 8561.97 8567.44 8573.12 8578.6 8584.14 8589.56 8595.01 8600.55 8606.04 8611.34 8616.84 8622.02 8627.31 8632.53 8637.93 8643.14 8648.33 8653.46 8658.77 8663.67 8668.83 8673.93 8678.91 8683.94 8688.98 8693.75 8698.72 8703.68 8708.51 8713.31 8718.1 8722.92 8727.5 8732.2 8736.98 8741.59 8746.2 8750.85 8755.35 8759.9 8764.22 8768.73 8773.19 8777.51 8781.84 8786.25 8790.43 8794.77 8798.99 8803.11 8807.36 8811.36 8815.49 8819.43 8823.47 8827.59 8831.46 8835.32 8839.12 8842.99 8846.81 8850.57 8854.44 8858.01 8861.87 8865.39 8868.89 8872.52 8876.05 8879.47 8882.99 8886.36 8889.71 8893.04 8896.46 8899.65 8902.9 8906.13 8909.17 8912.31 8915.39 8918.4 8921.39 8924.37 8927.38 8930.18 8933.02 8935.85 8938.63 8941.3 8943.97 8946.69 8949.32 8951.89 8954.46 8956.94 8959.35 8961.79 8964.18 8966.41 8968.9 8971.03 8973.28 8975.37 8977.53 8979.71 8981.67 8983.67 8985.75 8987.71 8989.46 8991.36 8993.23 8994.98 8996.74 8998.31 8999.92 9001.67 9003.31 9004.7 9006.19 9007.67 9009.03 9010.41 9011.64 9012.98 9014.2 9015.37 9016.57 9017.62 9018.64 9019.7 9020.62 9021.62 9022.51 9023.32 9024.22 9024.85 9025.65 9026.41 9027.03 9027.59 9028.11 9028.64 9029.06 9029.57 9030 9030.2 9030.55 9030.82 9031.01 9031.14 9031.42 9031.43 9031.44 9031.51 9031.36 9031.28 9031.3 9031.02 9030.72 9030.49 9030.31 9029.97 9029.49 9029.06 9028.58 9028.06 9027.57 9026.97 9026.34 9025.58 9024.9 9024.17 9023.37 9022.54 9021.61 9020.75 9019.71 9018.68 9017.68 9016.62 9015.37 9014.21 9012.94 9011.74 9010.39 9009.06 9007.63 9006.22 9004.74 9003.25 9001.61 9000.03 8998.37 8996.63 8994.98 8993.15 8991.41 8989.46 8987.68 8985.68 8983.79 8981.63 8979.67 8977.64 8975.36 8973.32 8971.03 8968.73 8966.39 8964.18 8961.79 8959.28 8956.9 8954.48 8951.84 8949.35 8946.67 8944.07 8941.41 8938.62
7482 7489.49 7497.15 7504.56 7512.14 7519.57 7527.2 7534.6 7542.25 7549.75 7557.12 7564.83 7572.28 7579.59 7587.25 7594.75 7602.28 7609.73 7617.2 7624.75 7632.11 7639.7 7647.11 7654.63 7662.04 7669.59 7676.93 7684.3 7691.83 7699.3 7706.64 7714.17 7721.56 7729.02 7736.31 7743.82 7751.27 7758.51 7766.06 7773.35 7780.74 7788.14 7795.52 7802.92 7810.28 7817.39 7824.86 7832.25 7839.61 7846.81 7854.26 7861.48 7868.67 7875.96 7883.23 7890.65 7897.78 7905.11 7912.32 7919.62 7926.8 7934.05 7941.33 7948.42 7955.63 7962.78 7970.02 7977.18 7984.34 7991.41 7998.51 8005.67 8012.74 8019.96 8026.94 8033.97 8041.12 8048.16 8055.16 8062.21 8069.16 8076.24 8083.26 8090.18 8097.11 8104.11 8111.21 8118.03 8124.91 8131.85 8138.62 8145.56 8152.45 8159.28 8166.05 8172.81 8179.74 8186.45 8193.19 8200.04 8206.69 8213.53 8220.11 8226.86 8233.6 8240.22 8246.83 8253.53 8260.22 8266.65 8273.34 8279.93 8286.53 8292.97 8299.53 8305.98 8312.51 8318.99 8325.29 8331.67 8338.23 8344.5 8350.9 8357.28 8363.62 8369.91 8376.21 8382.47 8388.77 8394.93 8401.17 8407.31 8413.45 8419.65 8425.77 8431.76 8437.95 8443.99 8449.92 8455.92 8462 8468 8473.88 8479.81 8485.69 8491.67 8497.47 8503.32 8509.14 8514.86 8520.66 8526.34 8531.92 8537.77 8543.53 8549.04 8554.68 8560.25 8565.83 8571.34 8576.82 8582.43 8587.83 8593.33 8598.59 8604.08 8609.4 8614.68 8619.97 8625.31 8630.54 8635.78 8641.06 8646.06 8651.17 8656.31 8661.42 8666.46 8671.41 8676.58 8681.43 8686.36 8691.16 8696.19 8700.95 8705.81 8710.51 8715.3 8719.93 8724.67 8729.34 8733.87 8738.51 8743.21 8747.59 8752.07 8756.56 8761.05 8765.47 8769.77 8774.1 8778.38 8782.73 8786.96 8791.1 8795.31 8799.41 8803.54 8807.69 8811.65 8815.52 8819.68 8823.58 8827.3 8831.31 8835.21 8839 8842.75 8846.51 8850.12 8853.83 8857.42 8860.97 8864.57 8868.01 8871.54 8874.93 8878.37 8881.65 8885.04 8888.31 8891.62 8894.78 8897.97 8901.05 8904.19 8907.29 8910.38 8913.34 8916.3 8919.19 8922.02 8924.79 8927.68 8930.4 8933.19 8935.82 8938.48 8941.11 8943.71 8946.26 8948.68 8951.16 8953.57 8955.86 8958.35 8960.6 8962.78 8964.95 8967.14 8969.33 8971.38 8973.37 8975.38 8977.43 8979.35 8981.28 8983.1 8984.86 8986.62 8988.43 8989.95 8991.68 8993.26 8994.88 8996.38 8997.77 8999.34 9000.67 9001.93 9003.3 9004.58 9005.85 9006.96 9008.18 9009.18 9010.3 9011.24 9012.34 9013.09 9014.13 9014.88 9015.73 9016.5 9017.17 9018.03 9018.55 9019.19 9019.76 9020.24 9020.66 9021.16 9021.59 9021.78 9022.11 9022.34 9022.66 9022.85 9022.88 9022.98 9023.02 9023.06 9023.03 9022.84 9022.77 9022.61 9022.42 9022.18 9021.86 9021.51 9021.09 9020.7 9020.22 9019.72 9019.18 9018.55 9017.83 9017.3 9016.54 9015.79 9015.03 9014.02 9013.21 9012.18 9011.33 9010.39 9009.22 9008.07 9007.05 9005.77 9004.57 9003.29 9002.04 9000.63 8999.3 8997.91 8996.31 8994.88 8993.28 8991.66 8990.04 8988.31 8986.59 8984.89 8982.98 8981.28 8979.27 8977.48 8975.42 8973.45 8971.33 8969.29 8967.19 8964.97 8962.75 8960.59 8958.21 8955.98 8953.52 8951.15 8948.69 8946.33 8943.7 8941.07 8938.52 8935.94 8933.07 8930.51
7477.24 7484.66 7492.26 7499.81 7507.31 7514.85 7522.35 7529.76 7537.21 7544.79 7552.25 7559.8 7567.33 7574.73 7582.04 7589.72 7597.17 7604.56 7612 7619.47 7627.06 7634.56 7641.85 7649.38 7656.8 7664.33 7671.68 7679 7686.53 7694.04 7701.43 7708.84 7716.24 7723.58 7731.04 7738.42 7745.77 7753.25 7760.6 7767.9 7775.33 7782.61 7790.07 7797.33 7804.68 7812.07 7819.37 7826.65 7833.95 7841.37 7848.6 7855.91 7863.13 7870.34 7877.68 7884.96 7892.19 7899.42 7906.62 7913.78 7921.12 7928.19 7935.41 7942.76 7949.83 7957.07 7964.13 7971.26 7978.5 7985.56 7992.67 7999.71 8006.9 8013.95 8021 8028.1 8035.17 8042.1 8049.21 8056.27 8063.09 8070.13 8077.05 8084.1 8091.16 8098.04 8104.91 8111.86 8118.64 8125.69 8132.54 8139.34 8146.16 8153.04 8159.83 8166.65 8173.31 8180.29 8186.9 8193.77 8200.48 8207.15 8213.84 8220.43 8227.23 8233.76 8240.4 8247.04 8253.7 8260.28 8266.76 8273.44 8279.94 8286.44 8292.96 8299.39 8305.83 8312.25 8318.63 8325.13 8331.53 8337.8 8344.24 8350.61 8356.92 8363.17 8369.54 8375.69 8381.91 8388.13 8394.19 8400.48 8406.63 8412.76 8418.8 8424.88 8430.95 8437.03 8443.02 8448.97 8455.11 8460.94 8467.02 8472.91 8478.71 8484.68 8490.42 8496.25 8502.1 8507.86 8513.55 8519.28 8524.93 8530.63 8536.3 8541.9 8547.53 8553.06 8558.71 8564.16 8569.65 8575.05 8580.63 8585.9 8591.36 8596.71 8602.09 8607.41 8612.65 8617.98 8623.18 8628.36 8633.51 8638.65 8643.75 8648.77 8653.93 8658.87 8663.86 8668.95 8673.88 8678.8 8683.75 8688.52 8693.33 8698.14 8702.87 8707.69 8712.28 8716.98 8721.71 8726.26 8730.86 8735.43 8739.82 8744.25 8748.9 8753.21 8757.68 8761.97 8766.32 8770.68 8774.91 8779.15 8783.31 8787.5 8791.52 8795.79 8799.83 8803.81 8807.93 8811.73 8815.62 8819.57 8823.52 8827.23 8831.04 8834.75 8838.62 8841.97 8845.77 8849.38 8852.98 8856.52 8860.06 8863.45 8866.83 8870.28 8873.56 8876.99 8880.1 8883.53 8886.63 8889.91 8893.01 8896.19 8899.15 8902.18 8905.2 8908.16 8911.04 8913.91 8916.7 8919.54 8922.32 8924.93 8927.7 8930.33 8932.86 8935.45 8937.92 8940.49 8942.89 8945.33 8947.56 8949.98 8952.35 8954.5 8956.74 8958.8 8960.96 8963.06 8965.14 8967.04 8969.07 8970.97 8972.85 8974.6 8976.55 8978.32 8979.92 8981.66 8983.32 8984.91 8986.35 8988.01 8989.36 8990.9 8992.15 8993.61 8994.87 8996.25 8997.33 8998.6 8999.84 9000.84 9001.86 9002.93 9003.89 9004.78 9005.72 9006.53 9007.45 9008.16 9008.84 9009.53 9010.1 9010.66 9011.24 9011.77 9012.2 9012.69 9013.09 9013.44 9013.62 9014.02 9014.12 9014.4 9014.41 9014.53 9014.56 9014.55 9014.61 9014.41 9014.31 9014.12 9013.95 9013.71 9013.46 9013.15 9012.68 9012.28 9011.66 9011.25 9010.72 9010.02 9009.47 9008.82 9008.06 9007.28 9006.53 9005.66 9004.84 9003.89 9002.97 9001.86 9000.87 8999.78 8998.54 8997.41 8996.24 8994.91 8993.57 8992.24 8990.91 8989.39 8987.96 8986.41 8984.94 8983.25 8981.72 8979.94 8978.32 8976.55 8974.77 8972.9 8970.98 8969.09 8967.14 8965.13 8963.09 8961.04 8958.86 8956.69 8954.57 8952.36 8949.96 8947.6 8945.24 8942.91 8940.42 8937.95 8935.44 8932.98 8930.33 8927.74 8925.03 8922.27
7472.32 7479.84 7487.51 7494.8 7502.37 7509.86 7517.35 7524.84 7532.12 7539.81 7547.31 7554.75 7562.34 7569.65 7577.07 7584.68 7592.02 7599.53 7607 7614.45 7621.89 7629.35 7636.76 7644.14 7651.61 7659.12 7666.48 7673.81 7681.29 7688.66 7696.17 7703.57 7710.93 7718.26 7725.73 7733.08 7740.5 7747.81 7755.18 7762.54 7769.91 7777.28 7784.49 7791.95 7799.22 7806.58 7813.84 7821.02 7828.35 7835.77 7842.98 7850.31 7857.5 7864.72 7872.1 7879.27 7886.48 7893.71 7900.92 7908.08 7915.35 7922.46 7929.72 7936.83 7944.1 7951.14 7958.29 7965.42 7972.64 7979.58 7986.88 7993.91 8000.91 8007.99 8015.04 8022.14 8029.02 8036.11 8043.2 8050.22 8057.12 8064.06 8071.08 8077.98 8085.04 8091.85 8098.76 8105.61 8112.45 8119.35 8126.22 8133.14 8139.94 8146.75 8153.57 8160.3 8167.15 8173.91 8180.62 8187.29 8193.98 8200.68 8207.33 8214.11 8220.73 8227.4 8233.92 8240.56 8247.14 8253.79 8260.3 8266.77 8273.27 8279.87 8286.29 8292.64 8299.28 8305.68 8311.94 8318.42 8324.82 8331.14 8337.47 8343.85 8350.03 8356.33 8362.6 8368.9 8375.07 8381.32 8387.46 8393.56 8399.7 8405.83 8412 8418 8424.06 8430.13 8435.97 8442.02 8448.04 8453.89 8459.9 8465.75 8471.67 8477.49 8483.38 8489.2 8494.87 8500.64 8506.37 8512.11 8517.73 8523.45 8529.15 8534.78 8540.36 8545.74 8551.33 8556.87 8562.31 8567.84 8573.19 8578.52 8584.07 8589.43 8594.64 8600.1 8605.2 8610.53 8615.76 8620.88 8626.12 8631.24 8636.33 8641.45 8646.41 8651.48 8656.43 8661.24 8666.29 8671.37 8676.14 8680.94 8685.7 8690.51 8695.3 8700.06 8704.69 8709.33 8714.07 8718.45 8723.15 8727.67 8732.25 8736.6 8741.12 8745.46 8750 8754.24 8758.52 8762.85 8767.15 8771.24 8775.49 8779.67 8783.73 8787.81 8791.95 8795.86 8799.97 8803.74 8807.68 8811.67 8815.56 8819.23 8822.94 8826.8 8830.55 8834.08 8837.76 8841.28 8844.96 8848.55 8851.94 8855.5 8858.84 8862.24 8865.56 8868.89 8872.16 8875.38 8878.63 8881.72 8884.82 8888 8891.05 8894.08 8896.95 8899.93 8902.76 8905.72 8908.46 8911.36 8914.07 8916.8 8919.4 8922.07 8924.64 8927.17 8929.78 8932.08 8934.58 8937.04 8939.38 8941.69 8943.98 8946.19 8948.25 8950.61 8952.57 8954.73 8956.88 8958.84 8960.85 8962.64 8964.56 8966.28 8968.27 8969.87 8971.59 8973.25 8974.98 8976.58 8978.06 8979.59 8981.03 8982.35 8983.87 8985.29 8986.59 8987.7 8988.94 8990.09 8991.25 8992.41 8993.49 8994.43 8995.42 8996.3 8997.21 8998.04 8998.86 8999.68 9000.38 9001.08 9001.75 9002.22 9002.82 9003.36 9003.84 9004.05 9004.61 9004.86 9005.18 9005.41 9005.7 9005.79 9006 9006.05 9006.14 9006.06 9006 9006.01 9005.85 9005.67 9005.51 9005.18 9004.86 9004.52 9004.17 9003.73 9003.29 9002.8 9002.3 9001.52 9000.94 9000.35 8999.54 8998.9 8998.03 8997.26 8996.34 8995.38 8994.46 8993.49 8992.44 8991.34 8990.13 8989 8987.79 8986.5 8985.24 8983.8 8982.46 8981.04 8979.62 8978.15 8976.54 8974.99 8973.31 8971.61 8969.9 8968.23 8966.45 8964.56 8962.63 8960.66 8958.8 8956.8 8954.76 8952.75 8950.52 8948.36 8946.19 8943.93 8941.69 8939.28 8936.99 8934.61 8932.19 8929.69 8927.25 8924.61 8922.03 8919.42 8916.8 8914.04
7467.56 7474.96 7482.53 7490.02 7497.47 7504.86 7512.38 7519.94 7527.41 7534.86 7542.3 7549.77 7557.28 7564.61 7572.06 7579.61 7586.95 7594.41 7601.76 7609.36 7616.8 7624.23 7631.62 7639.03 7646.42 7653.82 7661.27 7668.68 7676.11 7683.34 7690.83 7698.3 7705.64 7712.94 7720.37 7727.81 7735.11 7742.41 7749.8 7757.2 7764.38 7771.7 7779.04 7786.32 7793.7 7801.01 7808.34 7815.54 7822.79 7830.07 7837.33 7844.63 7851.85 7859.1 7866.19 7873.54 7880.84 7887.94 7895.26 7902.32 7909.59 7916.62 7923.92 7931.07 7938.27 7945.26 7952.41 7959.55 7966.58 7973.8 7980.69 7987.85 7994.85 8001.98 8009.11 8016.06 8023.08 8030.16 8036.98 8044.05 8050.96 8057.98 8064.97 8071.86 8078.84 8085.7 8092.6 8099.46 8106.35 8113.3 8120.01 8126.82 8133.7 8140.47 8147.27 8153.89 8160.84 8167.52 8174.37 8180.97 8187.57 8194.38 8200.99 8207.68 8214.2 8220.78 8227.51 8234.1 8240.63 8247.21 8253.71 8260.23 8266.77 8273.31 8279.74 8286.17 8292.51 8298.99 8305.37 8311.69 8318.08 8324.47 8330.8 8337.04 8343.29 8349.65 8355.88 8361.88 8368.18 8374.42 8380.61 8386.76 8392.78 8399.07 8405.11 8411.04 8417.25 8423.13 8429.12 8434.94 8441.15 8447.04 8452.89 8458.8 8464.52 8470.44 8476.17 8481.99 8487.83 8493.49 8499.26 8504.92 8510.56 8516.23 8521.97 8527.34 8533.02 8538.63 8544.06 8549.62 8555.08 8560.4 8565.95 8571.33 8576.67 8582.1 8587.24 8592.61 8597.8 8603.1 8608.24 8613.51 8618.58 8623.78 8628.92 8633.91 8638.87 8643.97 8648.96 8653.84 8658.8 8663.64 8668.46 8673.32 8678.17 8682.95 8687.75 8692.37 8697 8701.66 8706.23 8710.86 8715.47 8719.93 8724.39 8728.98 8733.28 8737.76 8742.15 8746.51 8750.68 8755.05 8759.24 8763.49 8767.71 8771.71 8775.87 8779.89 8783.94 8788.04 8791.95 8795.96 8799.79 8803.62 8807.56 8811.36 8815.05 8818.84 8822.51 8826.09 8829.72 8833.34 8836.95 8840.35 8843.85 8847.25 8850.76 8854.14 8857.58 8860.79 8863.95 8867.34 8870.38 8873.7 8876.78 8879.79 8882.86 8885.84 8888.75 8891.77 8894.7 8897.52 8900.43 8903.08 8905.79 8908.53 8911.07 8913.84 8916.37 8918.94 8921.51 8923.97 8926.28 8928.72 8931.08 8933.39 8935.66 8937.83 8940.03 8942.12 8944.41 8946.36 8948.44 8950.49 8952.34 8954.24 8956.16 8957.99 8959.81 8961.45 8963.3 8964.92 8966.57 8968.02 8969.62 8971.12 8972.59 8974.03 8975.35 8976.85 8978.07 8979.41 8980.5 8981.72 8982.79 8984 8984.94 8986 8987.03 8987.9 8988.63 8989.66 8990.43 8991.16 8991.8 8992.57 8993.17 8993.79 8994.2 8994.8 8995.28 8995.7 8996.19 8996.45 8996.69 8996.96 8997.14 8997.45 8997.57 8997.59 8997.55 8997.59 8997.59 8997.5 8997.35 8997.21 8996.92 8996.68 8996.42 8996.14 8995.72 8995.28 8994.82 8994.37 8993.73 8993.23 8992.48 8991.86 8991.27 8990.49 8989.6 8988.83 8987.87 8987.03 8986.04 8985.07 8984 8982.84 8981.73 8980.53 8979.33 8978.09 8976.8 8975.54 8974.14 8972.72 8971.25 8969.68 8968.03 8966.51 8964.85 8963.18 8961.6 8959.76 8957.91 8956.2 8954.34 8952.42 8950.47 8948.42 8946.48 8944.19 8942.23 8939.99 8937.89 8935.63 8933.36 8931.03 8928.8 8926.36 8923.96 8921.42 8918.91 8916.29 8913.77 8911.15 8908.52 8905.83
7462.65 7470.2 7477.62 7485.09 7492.53 7500 7507.45 7514.88 7522.34 7529.82 7537.28 7544.65 7552.19 7559.54 7567.09 7574.41 7581.97 7589.23 7596.75 7604.1 7611.65 7619.03 7626.48 7633.86 7641.24 7648.49 7656.03 7663.4 7670.74 7678.14 7685.52 7692.99 7700.28 7707.73 7714.92 7722.31 7729.63 7737.04 7744.3 7751.6 7758.97 7766.24 7773.57 7780.86 7788.18 7795.43 7802.7 7809.98 7817.25 7824.47 7831.79 7839.01 7846.13 7853.4 7860.64 7867.86 7875.11 7882.28 7889.52 7896.66 7903.87 7910.91 7918.06 7925.2 7932.33 7939.5 7946.62 7953.66 7960.78 7967.86 7974.96 7981.96 7988.88 7995.98 8003.01 8010.01 8017.13 8024.04 8030.97 8037.96 8044.91 8051.87 8058.82 8065.66 8072.65 8079.63 8086.35 8093.32 8100.13 8107.03 8113.64 8120.55 8127.42 8134.21 8140.89 8147.67 8154.35 8161.17 8167.9 8174.56 8181.26 8187.95 8194.61 8201.15 8207.81 8214.33 8220.91 8227.52 8234.14 8240.54 8247.13 8253.74 8260.12 8266.66 8273.01 8279.55 8285.88 8292.27 8298.8 8305.12 8311.36 8317.77 8324.09 8330.36 8336.49 8342.8 8349.03 8355.12 8361.47 8367.55 8373.78 8379.84 8385.87 8392.04 8398.17 8404.18 8410.23 8416.08 8422.12 8428.07 8433.99 8439.94 8445.76 8451.73 8457.48 8463.31 8469.16 8474.97 8480.63 8486.4 8491.96 8497.76 8503.5 8509.11 8514.64 8520.25 8525.73 8531.32 8536.72 8542.21 8547.74 8553.21 8558.6 8563.96 8569.31 8574.7 8579.79 8585.15 8590.43 8595.54 8600.9 8605.92 8611.09 8616.29 8621.26 8626.43 8631.31 8636.33 8641.37 8646.32 8651.25 8656.09 8660.86 8665.66 8670.53 8675.29 8680.05 8684.64 8689.38 8693.98 8698.6 8703.2 8707.67 8712.31 8716.7 8721.23 8725.64 8730.07 8734.28 8738.66 8742.88 8747.19 8751.38 8755.7 8759.86 8763.93 8768.04 8772.08 8776.05 8780 8784.01 8788 8791.97 8795.75 8799.52 8803.34 8807.12 8810.78 8814.51 8818.11 8821.79 8825.31 8828.89 8832.36 8835.8 8839.31 8842.63 8846.13 8849.31 8852.67 8855.95 8859.05 8862.4 8865.45 8868.62 8871.68 8874.67 8877.71 8880.64 8883.54 8886.37 8889.3 8892.01 8894.88 8897.53 8900.36 8902.93 8905.51 8908.1 8910.62 8913.15 8915.65 8918.05 8920.4 8922.71 8925.06 8927.29 8929.6 8931.75 8933.74 8935.99 8938.06 8940.02 8942.17 8943.99 8945.91 8947.84 8949.61 8951.37 8953.13 8954.83 8956.51 8958.08 8959.78 8961.18 8962.69 8964.17 8965.66 8966.93 8968.32 8969.66 8970.94 8972.07 8973.26 8974.33 8975.48 8976.55 8977.46 8978.47 8979.39 8980.34 8981.19 8982 8982.76 8983.46 8984.05 8984.74 8985.23 8985.77 8986.28 8986.81 8987.2 8987.61 8987.93 8988.23 8988.46 8988.67 8988.88 8989.03 8989.1 8989.11 8989.25 8989.04 8988.99 8988.84 8988.7 8988.43 8988.17 8987.95 8987.62 8987.11 8986.89 8986.39 8985.83 8985.32 8984.72 8984.17 8983.39 8982.75 8982.01 8981.22 8980.27 8979.42 8978.5 8977.51 8976.54 8975.43 8974.37 8973.32 8972.04 8970.92 8969.63 8968.36 8966.88 8965.66 8964.23 8962.72 8961.17 8959.69 8958.12 8956.48 8954.85 8953.11 8951.39 8949.6 8947.77 8945.88 8943.92 8941.99 8940.22 8938.04 8936.04 8933.84 8931.71 8929.66 8927.22 8925.03 8922.72 8920.52 8917.96 8915.56 8913.11 8910.7 8908.06 8905.63 8902.95 8900.27 8897.63
7457.81 7465.19 7472.66 7480.08 7487.62 7494.97 7502.49 7510.09 7517.49 7524.79 7532.14 7539.65 7547.09 7554.61 7561.94 7569.39 7576.81 7584.2 7591.63 7599 7606.4 7613.7 7621.26 7628.53 7635.83 7643.28 7650.74 7658.14 7665.51 7672.89 7680.1 7687.48 7694.92 7702.33 7709.54 7716.87 7724.3 7731.62 7738.92 7746.2 7753.51 7760.66 7768.03 7775.27 7782.55 7789.9 7797.16 7804.46 7811.67 7818.91 7826.1 7833.34 7840.54 7847.78 7854.98 7862.16 7869.4 7876.6 7883.7 7890.85 7897.97 7905.09 7912.45 7919.34 7926.44 7933.64 7940.62 7947.76 7954.87 7961.92 7969.05 7976.04 7983.01 7990 7996.98 8004.06 8011.01 8017.88 8024.95 8031.91 8038.87 8045.79 8052.68 8059.66 8066.5 8073.32 8080.08 8086.97 8093.89 8100.76 8107.53 8114.29 8121.02 8127.89 8134.68 8141.35 8148.1 8154.76 8161.52 8168.18 8174.78 8181.48 8188.06 8194.68 8201.28 8207.99 8214.43 8221.04 8227.53 8234.03 8240.56 8247.1 8253.52 8259.96 8266.38 8272.75 8279.24 8285.68 8291.99 8298.34 8304.63 8310.96 8317.21 8323.59 8329.77 8336.03 8342.21 8348.39 8354.53 8360.6 8366.95 8372.86 8378.99 8385.13 8391.12 8397.17 8403.24 8409.19 8415.05 8421.03 8426.99 8432.99 8438.71 8444.55 8450.31 8456.17 8461.91 8467.69 8473.54 8479.16 8484.97 8490.62 8496.13 8501.85 8507.34 8512.96 8518.54 8523.94 8529.47 8535.04 8540.52 8545.79 8551.24 8556.64 8561.99 8567.2 8572.6 8577.8 8583.02 8588.21 8593.38 8598.45 8603.65 8608.84 8613.75 8618.81 8623.91 8628.86 8633.79 8638.67 8643.58 8648.36 8653.27 8657.94 8662.9 8667.54 8672.37 8677.02 8681.76 8686.24 8690.93 8695.33 8700.02 8704.48 8708.89 8713.36 8717.66 8722.13 8726.48 8730.89 8735.12 8739.27 8743.5 8747.67 8751.86 8756 8760.06 8764.09 8768.19 8772.2 8776.11 8780.04 8783.84 8787.77 8791.51 8795.21 8799.08 8802.74 8806.46 8810.06 8813.64 8817.21 8820.74 8824.38 8827.85 8831.21 8834.45 8837.89 8841.29 8844.56 8847.77 8850.96 8854.18 8857.22 8860.35 8863.3 8866.39 8869.41 8872.34 8875.23 8878.17 8881.1 8883.84 8886.47 8889.26 8892.04 8894.58 8897.24 8899.9 8902.35 8904.87 8907.28 8909.58 8912.12 8914.45 8916.68 8919.06 8921.22 8923.34 8925.44 8927.6 8929.65 8931.72 8933.74 8935.63 8937.56 8939.28 8941.16 8942.93 8944.69 8946.38 8948.17 8949.67 8951.32 8952.76 8954.34 8955.76 8957.08 8958.52 8959.91 8961.15 8962.48 8963.68 8964.68 8965.91 8966.97 8968.02 8968.98 8970 8970.94 8971.69 8972.68 8973.47 8974.21 8974.88 8975.64 8976.25 8976.77 8977.38 8977.82 8978.26 8978.75 8979.05 8979.39 8979.56 8980.05 8980.27 8980.37 8980.4 8980.59 8980.62 8980.68 8980.5 8980.49 8980.24 8980.15 8979.93 8979.78 8979.45 8979.19 8978.65 8978.35 8977.8 8977.31 8976.85 8976.19 8975.53 8974.85 8974.17 8973.44 8972.6 8971.82 8970.97 8969.98 8968.97 8968.14 8966.95 8965.85 8964.82 8963.64 8962.42 8961.13 8959.84 8958.54 8957.16 8955.8 8954.31 8952.69 8951.28 8949.61 8948.06 8946.4 8944.63 8943.04 8941.21 8939.43 8937.44 8935.65 8933.75 8931.72 8929.71 8927.56 8925.48 8923.35 8921.08 8919.02 8916.66 8914.4 8912.11 8909.77 8907.26 8904.82 8902.46 8899.84 8897.24 8894.69 8892.01 8889.35
7452.85 7460.34 7467.77 7475.18 7482.77 7490.12 7497.55 7504.97 7512.31 7519.78 7527.21 7534.66 7541.95 7549.51 7556.86 7564.25 7571.53 7579.06 7586.44 7593.79 7601.11 7608.55 7616.04 7623.39 7630.76 7638.08 7645.53 7652.91 7660.22 7667.44 7674.83 7682.23 7689.51 7696.78 7704.15 7711.44 7718.85 7726.12 7733.39 7740.67 7747.91 7755.39 7762.59 7769.73 7777.02 7784.3 7791.59 7798.79 7805.95 7813.24 7820.47 7827.67 7834.87 7842.15 7849.21 7856.4 7863.63 7870.73 7877.89 7885.08 7892.21 7899.26 7906.34 7913.58 7920.63 7927.68 7934.9 7941.9 7948.86 7956.07 7963.03 7969.96 7977.01 7984.02 7990.96 7997.96 8004.91 8011.92 8018.82 8025.72 8032.72 8039.66 8046.44 8053.36 8060.28 8067.14 8074.01 8080.78 8087.6 8094.37 8101.12 8108.04 8114.77 8121.56 8128.3 8134.94 8141.73 8148.33 8155.05 8161.78 8168.39 8175.02 8181.58 8188.19 8194.84 8201.44 8207.95 8214.44 8220.98 8227.47 8233.91 8240.44 8246.84 8253.33 8259.75 8266.14 8272.6 8278.77 8285.19 8291.54 8297.97 8304.14 8310.3 8316.71 8322.93 8329.06 8335.34 8341.48 8347.68 8353.79 8359.85 8366.09 8372.05 8378.14 8384.18 8390.21 8396.13 8402.25 8408.03 8413.92 8420 8425.91 8431.69 8437.31 8443.19 8449.03 8454.9 8460.59 8466.39 8472.09 8477.72 8483.45 8488.95 8494.64 8500 8505.67 8511.21 8516.67 8522.25 8527.66 8533.05 8538.32 8543.85 8549.14 8554.54 8559.8 8565.14 8570.39 8575.51 8580.71 8585.99 8591.01 8596.2 8601.2 8606.22 8611.34 8616.29 8621.26 8626.16 8631.04 8635.95 8640.9 8645.69 8650.42 8655.08 8659.99 8664.63 8669.29 8673.84 8678.54 8683.1 8687.59 8692.2 8696.63 8701.09 8705.58 8709.93 8714.4 8718.71 8723 8727.26 8731.53 8735.61 8739.77 8744.08 8748.08 8752.19 8756.23 8760.14 8764.06 8768.09 8772.02 8775.86 8779.7 8783.57 8787.37 8791.07 8794.81 8798.29 8801.89 8805.68 8809.15 8812.73 8816.15 8819.75 8823.08 8826.57 8829.79 8833.05 8836.26 8839.58 8842.81 8845.94 8848.99 8852.2 8855.18 8858.28 8861.18 8864.14 8867.12 8869.92 8872.71 8875.52 8878.36 8881.13 8883.62 8886.38 8888.88 8891.51 8894 8896.62 8898.93 8901.42 8903.68 8906.08 8908.34 8910.53 8912.77 8914.98 8917.14 8919.2 8921.27 8923.29 8925.23 8927.16 8929.09 8931.02 8932.78 8934.41 8936.35 8937.94 8939.61 8941.28 8942.75 8944.27 8945.84 8947.2 8948.74 8950.07 8951.42 8952.66 8953.94 8955.2 8956.36 8957.43 8958.57 8959.56 8960.49 8961.52 8962.41 8963.27 8964.14 8965.01 8965.62 8966.44 8966.98 8967.7 8968.26 8968.78 8969.29 8969.82 8970.11 8970.5 8970.86 8971.21 8971.36 8971.67 8971.72 8971.9 8971.94 8972.09 8972.12 8972.05 8971.87 8971.81 8971.61 8971.46 8971.2 8970.91 8970.54 8970.16 8969.89 8969.28 8968.76 8968.25 8967.65 8967.09 8966.41 8965.66 8964.79 8964.09 8963.37 8962.39 8961.49 8960.54 8959.57 8958.48 8957.47 8956.24 8955.14 8953.87 8952.65 8951.41 8950.12 8948.75 8947.29 8945.94 8944.33 8942.75 8941.2 8939.66 8938 8936.35 8934.57 8932.72 8930.9 8929.03 8927.2 8925.32 8923.3 8921.32 8919.23 8917.14 8915.06 8912.76 8910.58 8908.33 8905.99 8903.76 8901.32 8899.01 8896.44 8894.08 8891.52 8888.94 8886.34 8883.55 8880.98
7447.88 7455.4 7462.77 7470.18 7477.62 7485.08 7492.53 7499.96 7507.26 7514.66 7522.18 7529.56 7536.9 7544.28 7551.8 7559.11 7566.41 7573.95 7581.19 7588.64 7596.07 7603.31 7610.78 7618.12 7625.42 7632.8 7640.2 7647.54 7654.9 7662.18 7669.57 7676.86 7684.11 7691.48 7698.65 7706.09 7713.26 7720.62 7727.95 7735.21 7742.54 7749.68 7757.01 7764.29 7771.53 7778.72 7785.93 7793.15 7800.49 7807.6 7814.82 7821.97 7829.21 7836.28 7843.47 7850.68 7857.92 7864.9 7872.21 7879.33 7886.43 7893.45 7900.5 7907.64 7914.66 7921.77 7928.92 7935.94 7942.98 7949.97 7956.95 7964 7971.05 7977.95 7984.99 7991.92 7998.97 8005.77 8012.74 8019.6 8026.55 8033.46 8040.34 8047.21 8054.03 8060.97 8067.79 8074.59 8081.27 8088.16 8094.92 8101.68 8108.44 8115.13 8121.89 8128.57 8135.35 8142.03 8148.72 8155.31 8161.93 8168.44 8175.29 8181.8 8188.31 8194.77 8201.34 8207.92 8214.47 8220.9 8227.36 8233.8 8240.3 8246.63 8253.06 8259.49 8265.76 8272.11 8278.6 8284.71 8291.21 8297.38 8303.64 8309.97 8316.08 8322.33 8328.53 8334.72 8340.74 8346.89 8352.98 8359.09 8365.11 8371.22 8377.16 8383.14 8389.18 8395.16 8401.01 8406.91 8412.9 8418.65 8424.59 8430.29 8436.14 8441.94 8447.71 8453.44 8459.07 8464.8 8470.57 8476.07 8481.69 8487.29 8492.81 8498.45 8503.9 8509.39 8514.91 8520.34 8525.72 8531.07 8536.46 8541.84 8547.04 8552.37 8557.55 8562.91 8568.02 8573.26 8578.32 8583.39 8588.68 8593.67 8598.65 8603.77 8608.72 8613.58 8618.62 8623.46 8628.29 8633.16 8637.93 8642.72 8647.45 8652.22 8656.82 8661.51 8666.2 8670.78 8675.38 8679.91 8684.38 8688.9 8693.37 8697.79 8702.18 8706.54 8710.83 8715.15 8719.33 8723.61 8727.82 8731.94 8736.05 8740.1 8744.22 8748.17 8752.19 8756.17 8760.06 8764.11 8767.83 8771.69 8775.48 8779.25 8782.98 8786.71 8790.28 8793.87 8797.54 8801.13 8804.55 8807.93 8811.49 8814.94 8818.27 8821.62 8824.86 8828.21 8831.36 8834.53 8837.76 8840.89 8843.97 8846.89 8850.13 8853.06 8855.89 8858.81 8861.58 8864.41 8867.28 8870.06 8872.79 8875.35 8877.96 8880.65 8883.19 8885.7 8888.21 8890.7 8892.95 8895.34 8897.71 8900 8902.21 8904.44 8906.56 8908.66 8910.73 8912.82 8914.8 8916.86 8918.78 8920.62 8922.43 8924.37 8926.07 8927.8 8929.52 8931.1 8932.71 8934.33 8935.85 8937.41 8938.88 8940.13 8941.47 8942.87 8944.12 8945.34 8946.57 8947.79 8948.92 8949.89 8951.02 8952.07 8952.95 8953.92 8954.77 8955.48 8956.45 8956.96 8957.73 8958.46 8959.08 8959.71 8960.28 8960.78 8961.22 8961.57 8961.91 8962.3 8962.62 8962.81 8963.06 8963.23 8963.36 8963.56 8963.52 8963.55 8963.33 8963.32 8963.34 8963.08 8962.88 8962.69 8962.34 8961.99 8961.67 8961.14 8960.78 8960.32 8959.76 8959.07 8958.63 8957.77 8957.21 8956.36 8955.49 8954.71 8953.86 8952.98 8951.98 8951.03 8949.88 8948.94 8947.72 8946.64 8945.35 8944.24 8942.92 8941.61 8940.22 8938.81 8937.34 8935.83 8934.37 8932.82 8931.16 8929.5 8927.84 8926.12 8924.36 8922.49 8920.67 8918.75 8916.82 8914.86 8912.9 8910.88 8908.84 8906.69 8904.4 8902.09 8899.85 8897.69 8895.41 8892.94 8890.63 8888.2 8885.72 8883.13 8880.73 8877.93 8875.44 8872.76
7443 7450.54 7458.02 7465.3 7472.64 7480.15 7487.63 7494.92 7502.32 7509.57 7517.11 7524.46 7531.81 7539.32 7546.6 7554.05 7561.39 7568.83 7576.16 7583.32 7590.85 7598.2 7605.39 7612.87 7620.13 7627.47 7634.86 7642.14 7649.55 7656.82 7664.11 7671.47 7678.72 7685.92 7693.31 7700.58 7707.9 7715.17 7722.4 7729.78 7737.01 7744.25 7751.46 7758.65 7765.83 7773.12 7780.3 7787.6 7794.75 7801.86 7809.04 7816.25 7823.49 7830.6 7837.68 7844.96 7852.1 7859.24 7866.31 7873.36 7880.44 7887.59 7894.7 7901.71 7908.81 7915.79 7922.95 7929.98 7936.9 7944.03 7950.97 7958.06 7964.93 7971.85 7978.95 7985.85 7992.83 7999.7 8006.6 8013.53 8020.35 8027.36 8034.11 8040.97 8047.77 8054.64 8061.46 8068.24 8075.11 8081.84 8088.63 8095.35 8102.14 8108.93 8115.48 8122.17 8128.89 8135.56 8142.23 8148.94 8155.48 8162.06 8168.5 8175.13 8181.76 8188.19 8194.76 8201.43 8207.71 8214.24 8220.71 8227.21 8233.5 8240 8246.4 8252.81 8259.16 8265.43 8271.72 8278 8284.38 8290.58 8296.83 8302.97 8309.33 8315.5 8321.65 8327.72 8333.86 8339.98 8345.96 8352.09 8358.26 8364.21 8370.17 8376.13 8382.16 8388.02 8393.99 8399.86 8405.81 8411.6 8417.47 8423.26 8429.09 8434.76 8440.51 8446.36 8451.93 8457.65 8463.22 8468.78 8474.46 8480.09 8485.59 8491.08 8496.63 8502.11 8507.54 8513.08 8518.24 8523.69 8529.15 8534.42 8539.59 8544.91 8550.17 8555.33 8560.45 8565.89 8570.89 8575.9 8581.13 8586.17 8591.17 8596.05 8601.15 8606.06 8610.98 8615.82 8620.7 8625.45 8630.24 8635.05 8639.8 8644.42 8649.35 8653.89 8658.4 8663.11 8667.61 8672.06 8676.7 8681.09 8685.6 8689.92 8694.25 8698.62 8702.97 8707.14 8711.43 8715.67 8719.79 8723.92 8728.07 8732.17 8736.29 8740.3 8744.32 8748.22 8752.1 8755.94 8759.77 8763.61 8767.49 8771.22 8774.84 8778.63 8782.25 8785.76 8789.4 8793.03 8796.48 8800.04 8803.37 8806.77 8810.18 8813.51 8816.71 8819.94 8823.21 8826.44 8829.48 8832.66 8835.79 8838.74 8841.72 8844.72 8847.56 8850.58 8853.43 8856.11 8858.94 8861.73 8864.52 8867.06 8869.78 8872.18 8874.86 8877.37 8879.82 8882.3 8884.7 8887.02 8889.29 8891.55 8893.82 8896.1 8898.18 8900.32 8902.32 8904.53 8906.46 8908.4 8910.31 8912.21 8914 8915.84 8917.66 8919.28 8921.14 8922.67 8924.14 8925.82 8927.41 8928.95 8930.36 8931.62 8933.1 8934.39 8935.66 8936.79 8938.07 8939.24 8940.38 8941.52 8942.58 8943.49 8944.48 8945.21 8946.15 8947.1 8947.84 8948.58 8949.3 8949.94 8950.51 8951.14 8951.64 8952.09 8952.57 8952.95 8953.42 8953.69 8953.95 8954.29 8954.62 8954.71 8954.86 8954.87 8954.95 8954.9 8954.98 8954.85 8954.69 8954.59 8954.26 8954.02 8953.65 8953.37 8953.02 8952.7 8952.18 8951.66 8951.22 8950.6 8950.04 8949.37 8948.54 8947.73 8946.94 8946.2 8945.35 8944.42 8943.49 8942.48 8941.45 8940.34 8939.27 8938.08 8936.81 8935.72 8934.4 8933.05 8931.76 8930.21 8928.8 8927.28 8925.82 8924.19 8922.74 8921.06 8919.36 8917.61 8915.78 8914.03 8912.24 8910.41 8908.38 8906.54 8904.42 8902.47 8900.33 8898.17 8895.97 8893.74 8891.61 8889.32 8887.08 8884.67 8882.23 8879.85 8877.29 8874.76 8872.34 8869.7 8867.06 8864.33
7438.21 7445.43 7452.84 7460.34 7467.69 7475.21 7482.44 7489.9 7497.27 7504.62 7511.88 7519.37 7526.73 7534.02 7541.46 7548.69 7556.14 7563.59 7570.91 7578.12 7585.54 7592.92 7600.26 7607.6 7614.88 7622.25 7629.57 7636.92 7644.16 7651.34 7658.71 7666.04 7673.32 7680.59 7687.94 7695.2 7702.33 7709.57 7716.86 7724.2 7731.46 7738.64 7745.82 7753.05 7760.25 7767.6 7774.63 7781.87 7789.12 7796.27 7803.41 7810.52 7817.72 7824.85 7831.96 7839.11 7846.28 7853.4 7860.53 7867.43 7874.61 7881.71 7888.89 7895.83 7902.95 7909.91 7916.93 7924.11 7930.88 7937.98 7944.84 7951.93 7958.89 7965.85 7972.9 7979.74 7986.7 7993.57 8000.61 8007.42 8014.18 8020.97 8027.91 8034.77 8041.67 8048.42 8055.21 8062.04 8068.71 8075.51 8082.26 8089.01 8095.71 8102.35 8109.13 8115.88 8122.53 8129.12 8135.82 8142.39 8148.92 8155.58 8162.16 8168.58 8175.24 8181.77 8188.21 8194.78 8201.17 8207.68 8214.03 8220.47 8226.85 8233.29 8239.57 8245.97 8252.3 8258.77 8264.9 8271.14 8277.53 8283.81 8290.04 8296.16 8302.36 8308.67 8314.8 8320.84 8326.96 8332.99 8339.13 8345.09 8351.14 8357.21 8363.17 8369.21 8375.11 8380.99 8386.77 8392.83 8398.56 8404.54 8410.23 8416.08 8421.8 8427.59 8433.38 8438.99 8444.74 8450.36 8455.96 8461.61 8467.04 8472.74 8478.34 8483.76 8489.24 8494.72 8500.18 8505.53 8510.95 8516.32 8521.53 8527.02 8532.18 8537.56 8542.63 8547.79 8553.04 8558.16 8563.37 8568.42 8573.52 8578.58 8583.51 8588.56 8593.41 8598.44 8603.28 8608.2 8613.12 8617.78 8622.62 8627.35 8632.08 8636.75 8641.4 8646.07 8650.73 8655.27 8659.74 8664.3 8668.74 8673.21 8677.71 8682.03 8686.4 8690.76 8695.02 8699.38 8703.54 8707.75 8711.96 8716.09 8720.2 8724.18 8728.26 8732.32 8736.26 8740.27 8744.11 8747.93 8751.8 8755.68 8759.43 8763.11 8766.87 8770.46 8774.11 8777.64 8781.3 8784.72 8788.36 8791.79 8795.29 8798.59 8801.88 8805.26 8808.53 8811.84 8815.08 8818.21 8821.2 8824.38 8827.53 8830.5 8833.52 8836.44 8839.39 8842.25 8845.08 8847.92 8850.72 8853.28 8856.07 8858.79 8861.4 8863.96 8866.52 8868.91 8871.42 8873.81 8876.21 8878.59 8880.91 8883.12 8885.35 8887.6 8889.72 8891.88 8894.01 8895.84 8898.07 8899.95 8901.94 8903.78 8905.54 8907.48 8909.21 8910.97 8912.45 8914.19 8915.85 8917.39 8918.86 8920.34 8921.78 8923.2 8924.55 8925.71 8927.18 8928.33 8929.47 8930.62 8931.84 8932.9 8933.94 8934.89 8935.89 8936.82 8937.59 8938.46 8939.21 8940.01 8940.74 8941.33 8941.9 8942.54 8943.1 8943.55 8944.11 8944.42 8944.87 8945.12 8945.48 8945.66 8945.95 8946.03 8946.26 8946.28 8946.46 8946.3 8946.25 8946.3 8946 8945.89 8945.69 8945.52 8945.18 8944.81 8944.45 8943.98 8943.5 8943.14 8942.58 8941.97 8941.3 8940.7 8939.92 8939.16 8938.48 8937.75 8936.71 8935.89 8934.99 8933.97 8932.89 8931.85 8930.82 8929.63 8928.36 8927.2 8925.82 8924.52 8923.17 8921.77 8920.29 8918.86 8917.26 8915.71 8914.24 8912.61 8910.82 8909.22 8907.31 8905.56 8903.75 8901.92 8899.96 8897.97 8895.88 8893.94 8891.86 8889.76 8887.59 8885.25 8883.12 8880.88 8878.58 8876.21 8873.83 8871.38 8869 8866.46 8863.85 8861.25 8858.72 8856.19
7433.27 7440.58 7447.92 7455.26 7462.61 7470.07 7477.4 7484.81 7492.16 7499.48 7506.91 7514.29 7521.58 7529 7536.27 7543.63 7550.8 7558.4 7565.72 7573.1 7580.29 7587.6 7595.09 7602.18 7609.58 7616.79 7624.24 7631.46 7638.87 7646.16 7653.3 7660.62 7668.03 7675.1 7682.4 7689.57 7696.87 7704.14 7711.36 7718.6 7725.87 7733.11 7740.23 7747.46 7754.75 7761.81 7769.08 7776.14 7783.41 7790.64 7797.62 7804.8 7811.93 7819.21 7826.22 7833.35 7840.38 7847.47 7854.61 7861.65 7868.85 7875.94 7882.84 7890 7896.95 7904.04 7911.07 7918.07 7924.99 7931.97 7939.07 7945.9 7952.84 7959.76 7966.68 7973.77 7980.49 7987.5 7994.29 8001.18 8008.07 8014.87 8021.84 8028.43 8035.34 8042.1 8048.96 8055.69 8062.48 8069.16 8075.94 8082.69 8089.29 8096.13 8102.59 8109.35 8115.99 8122.6 8129.15 8136 8142.44 8149.03 8155.54 8162.19 8168.64 8175.15 8181.57 8188.19 8194.52 8201.08 8207.51 8213.83 8220.25 8226.64 8232.88 8239.24 8245.45 8251.88 8258.17 8264.47 8270.61 8277.08 8283.17 8289.37 8295.51 8301.61 8307.76 8313.81 8319.99 8326.02 8332.12 8338.19 8344.27 8350.18 8356.07 8362.01 8368.12 8373.89 8379.72 8385.66 8391.57 8397.56 8403.16 8408.81 8414.62 8420.55 8426.09 8431.74 8437.43 8443.06 8448.73 8454.25 8459.84 8465.36 8470.88 8476.48 8481.94 8487.35 8492.76 8498.23 8503.39 8508.8 8514.13 8519.53 8524.73 8529.93 8535.14 8540.46 8545.6 8550.6 8555.7 8560.84 8565.93 8571.15 8575.87 8580.97 8585.94 8590.77 8595.67 8600.44 8605.35 8610.1 8614.92 8619.58 8624.39 8628.99 8633.68 8638.33 8642.86 8647.47 8651.94 8656.45 8660.96 8665.36 8669.8 8674.21 8678.55 8682.92 8687.07 8691.42 8695.54 8699.86 8703.91 8708.1 8712.2 8716.29 8720.21 8724.3 8728.21 8732 8736.05 8739.93 8743.73 8747.61 8751.41 8754.99 8758.73 8762.4 8766.11 8769.64 8773.19 8776.54 8780.14 8783.57 8786.95 8790.28 8793.63 8797.04 8800.41 8803.7 8806.72 8809.94 8813.03 8816.12 8819.36 8822.15 8825.26 8828.09 8831.09 8833.89 8836.71 8839.56 8842.43 8845.15 8847.67 8850.33 8852.96 8855.62 8858.12 8860.57 8862.99 8865.41 8867.78 8870.17 8872.44 8874.71 8877.09 8879.15 8881.3 8883.45 8885.43 8887.44 8889.58 8891.43 8893.38 8895.31 8897.17 8898.95 8900.64 8902.29 8904.03 8905.65 8907.14 8908.89 8910.22 8911.75 8913.21 8914.66 8915.92 8917.26 8918.61 8919.65 8921.08 8922.17 8923.26 8924.35 8925.27 8926.43 8927.29 8928.16 8928.99 8929.9 8930.68 8931.36 8932.09 8932.73 8933.28 8933.93 8934.46 8935.03 8935.45 8935.84 8936.26 8936.55 8936.81 8937.01 8937.28 8937.48 8937.61 8937.67 8937.66 8937.76 8937.67 8937.64 8937.49 8937.32 8937.13 8936.8 8936.48 8936.24 8935.85 8935.52 8935.08 8934.45 8934.04 8933.38 8932.82 8932.1 8931.43 8930.68 8929.89 8929.05 8928.15 8927.3 8926.35 8925.44 8924.36 8923.26 8922.18 8920.95 8919.79 8918.5 8917.34 8915.88 8914.58 8913.26 8911.91 8910.4 8908.79 8907.3 8905.74 8903.95 8902.35 8900.59 8898.87 8897.1 8895.28 8893.39 8891.44 8889.56 8887.51 8885.56 8883.41 8881.34 8879.15 8877.03 8874.83 8872.5 8870.19 8867.8 8865.43 8863.01 8860.72 8858.1 8855.5 8852.95 8850.34 8847.75
7428.31 7435.58 7442.97 7450.34 7457.59 7465.05 7472.4 7479.76 7487.04 7494.47 7501.73 7509.05 7516.31 7523.9 7531.11 7538.54 7545.75 7553.14 7560.38 7567.72 7575 7582.41 7589.68 7596.92 7604.25 7611.65 7618.81 7626.15 7633.4 7640.65 7648 7655.19 7662.35 7669.7 7676.88 7684.27 7691.4 7698.56 7705.8 7713.15 7720.32 7727.41 7734.65 7741.92 7749.02 7756.34 7763.41 7770.62 7777.72 7784.87 7792.07 7799.08 7806.32 7813.36 7820.51 7827.56 7834.67 7841.72 7848.75 7855.83 7862.96 7869.93 7877.01 7883.96 7891.06 7897.93 7905.08 7911.86 7919.01 7925.95 7932.89 7939.99 7946.71 7953.62 7960.48 7967.45 7974.47 7981.29 7988.11 7995.03 8001.82 8008.69 8015.35 8022.19 8029.07 8035.81 8042.66 8049.38 8056.15 8062.9 8069.57 8076.31 8082.98 8089.62 8096.26 8102.88 8109.52 8116.08 8122.84 8129.49 8135.92 8142.47 8149.01 8155.56 8162.03 8168.55 8175.07 8181.39 8187.93 8194.22 8200.77 8207.12 8213.49 8219.8 8226.21 8232.52 8238.76 8245.14 8251.34 8257.65 8263.94 8270.14 8276.32 8282.49 8288.65 8294.77 8300.83 8307.02 8313.05 8319.12 8325.16 8331.12 8337.21 8343.07 8349.03 8355.09 8360.94 8366.72 8372.73 8378.63 8384.4 8390.18 8395.95 8401.68 8407.49 8413.23 8419.02 8424.49 8430.16 8435.8 8441.38 8446.91 8452.47 8458.01 8463.61 8469.15 8474.52 8479.83 8485.37 8490.62 8496.1 8501.45 8506.7 8511.98 8517.31 8522.5 8527.62 8532.87 8538.02 8543.11 8548.32 8553.16 8558.29 8563.34 8568.29 8573.21 8578.28 8583.05 8587.95 8592.8 8597.64 8602.47 8607.11 8611.89 8616.66 8621.28 8626 8630.45 8635.13 8639.69 8644.19 8648.59 8653.18 8657.58 8662 8666.26 8670.72 8674.92 8679.31 8683.45 8687.57 8691.96 8696.05 8700.11 8704.23 8708.3 8712.26 8716.23 8720.26 8724.06 8727.95 8731.91 8735.64 8739.33 8743.25 8747.01 8750.54 8754.22 8757.88 8761.47 8764.99 8768.45 8771.95 8775.42 8778.84 8782.14 8785.46 8788.73 8792.08 8795.32 8798.43 8801.68 8804.82 8807.86 8810.86 8813.9 8816.86 8819.78 8822.74 8825.59 8828.41 8831.23 8833.97 8836.75 8839.38 8842.08 8844.65 8847.23 8849.68 8852.11 8854.68 8856.98 8859.41 8861.69 8863.92 8866.28 8868.59 8870.58 8872.91 8874.9 8877.03 8879.01 8881.02 8883.02 8884.94 8886.76 8888.57 8890.39 8892.17 8893.71 8895.48 8897.22 8898.67 8900.21 8901.67 8903.32 8904.66 8906.15 8907.35 8908.7 8910.04 8911.27 8912.44 8913.53 8914.67 8915.76 8916.78 8917.68 8918.67 8919.57 8920.45 8921.37 8922.03 8922.8 8923.4 8924.13 8924.76 8925.34 8925.78 8926.41 8926.86 8927.17 8927.55 8927.92 8928.23 8928.44 8928.66 8928.94 8928.95 8928.9 8929.06 8929.12 8929.1 8928.98 8928.93 8928.65 8928.46 8928.26 8927.95 8927.74 8927.27 8926.88 8926.3 8925.85 8925.4 8924.74 8924.12 8923.53 8922.83 8922.13 8921.26 8920.4 8919.55 8918.71 8917.8 8916.82 8915.72 8914.68 8913.6 8912.48 8911.3 8910.12 8908.72 8907.37 8906.02 8904.66 8903.3 8901.74 8900.21 8898.65 8897.08 8895.49 8893.89 8892.11 8890.42 8888.7 8886.79 8884.92 8883.02 8880.98 8879.03 8876.97 8875.01 8872.84 8870.73 8868.47 8866.39 8863.96 8861.77 8859.36 8856.89 8854.63 8852.12 8849.64 8847.2 8844.63 8841.87 8839.39
