7901.62 7910.35 7919.26 7927.99 7936.94 7945.63 7954.52 7963.17 7972.11 7980.79 7989.64 7998.52 8007.22 8016.11 8024.87 8033.67 8042.51 8051.42 8060.14 8068.84 8077.6 8086.54 8095.33 8104.04 8112.93 8121.66 8130.68 8139.28 8148.06 8156.91 8165.64 8174.33 8183.22 8191.98 8200.77 8209.55 8218.22 8227.02 8235.82 8244.44 8253.32 8262 8270.71 8279.46 8288.14 8296.97 8305.54 8314.19 8322.88 8331.59 8340.34 8349.02 8357.65 8366.38 8375 8383.65 8392.29 8400.93 8409.57 8418.23 8426.83 8435.44 8443.95 8452.66 8461.14 8469.78 8478.33 8486.79 8495.34 8503.94 8512.43 8520.9 8529.37 8537.96 8546.4 8554.86 8563.37 8571.76 8580.21 8588.66 8597.06 8605.31 8613.8 8622.24 8630.43 8638.85 8647.2 8655.49 8663.77 8672.25 8680.42 8688.64 8696.93 8705.33 8713.33 8721.66 8729.82 8738.09 8746.12 8754.24 8762.45 8770.47 8778.7 8786.64 8794.7 8802.81 8810.87 8818.86 8826.86 8834.85 8842.66 8850.67 8858.64 8866.42 8874.37 8882.25 8890.07 8897.96 8905.77 8913.36 8921.22 8928.91 8936.65 8944.33 8952.07 8959.67 8967.29 8974.87 8982.46 8990.14 8997.58 9005.15 9012.67 9020.02 9027.44 9034.95 9042.4 9049.81 9057.03 9064.37 9071.69 9078.85 9086.18 9093.4 9100.66 9107.79 9114.95 9121.84 9129.06 9136.15 9143.15 9150.26 9157.08 9164.01 9170.94 9177.83 9184.74 9191.44 9198.39 9205.11 9211.71 9218.47 9225.2 9231.79 9238.39 9244.94 9251.57 9258.09 9264.58 9271.01 9277.43 9283.81 9290.13 9296.48 9302.7 9308.98 9315.27 9321.5 9327.65 9333.66 9339.74 9345.79 9351.78 9357.76 9363.72 9369.62 9375.46 9381.26 9387.05 9392.73 9398.54 9404.32 9409.91 9415.33 9421.03 9426.55 9432.08 9437.47 9442.86 9448.32 9453.53 9458.89 9464.15 9469.31 9474.49 9479.51 9484.66 9489.77 9494.64 9499.7 9504.58 9509.56 9514.27 9519.17 9523.81 9528.54 9533.23 9537.85 9542.37 9546.95 9551.41 9555.9 9560.19 9564.65 9568.93 9573.2 9577.41 9581.59 9585.73 9589.77 9593.83 9597.83 9601.71 9605.59 9609.49 9613.24 9616.97 9620.75 9624.43 9627.92 9631.6 9635.11 9638.49 9642.05 9645.39 9648.78 9651.97 9655.19 9658.37 9661.57 9664.58 9667.57 9670.61 9673.54 9676.39 9679.29 9681.95 9684.8 9687.46 9690.09 9692.62 9695.19 9697.66 9700.16 9702.54 9704.82 9707.07 9709.39 9711.49 9713.62 9715.69 9717.65 9719.64 9721.61 9723.39 9725.24 9726.99 9728.77 9730.41 9731.94 9733.44 9735.02 9736.49 9737.81 9739.2 9740.52 9741.7 9742.9 9744.02 9745 9746.14 9747.05 9747.97 9748.88 9749.64 9750.43 9751.03 9751.67 9752.36 9752.87 9753.33 9753.72 9754.14 9754.47 9754.78 9754.97 9755.06 9755.17 9755.25 9755.28 9755.2 9755.11 9754.9 9754.71 9754.46 9754.13 9753.71 9753.28 9752.87 9752.29 9751.72 9751.06 9750.34 9749.62 9748.77 9747.97 9747.11 9746.15 9745.06 9744 9742.89 9741.71 9740.37 9739.15 9737.81 9736.42 9735.06 9733.51 9732 9730.41 9728.72 9726.99 9725.25 9723.43 9721.55 9719.61 9717.65 9715.69 9713.64 9711.54 9709.36 9707.02 9704.9 9702.49 9700.14 9697.65 9695.17 9692.72 9690.09 9687.46 9684.79 9682.08 9679.26 9676.49 9673.51 9670.61 9667.61 9664.59 9661.54 9658.34 9655.25 9651.99 9648.69 9645.36 9642.03 9638.62 9635.06 9631.6
7898.91 7907.65 7916.44 7925.32 7933.97 7942.89 7951.63 7960.5 7969.31 7978.04 7986.86 7995.65 8004.45 8013.28 8022.17 8030.9 8039.7 8048.46 8057.36 8066.03 8074.84 8083.69 8092.55 8101.22 8109.91 8118.77 8127.64 8136.43 8145.1 8153.89 8162.71 8171.53 8180.19 8188.89 8197.7 8206.55 8215.22 8224.09 8232.8 8241.51 8250.11 8258.96 8267.64 8276.37 8285.12 8293.77 8302.57 8311.06 8319.89 8328.38 8337.15 8345.81 8354.48 8363.09 8371.74 8380.48 8389.15 8397.71 8406.31 8414.92 8423.49 8432.18 8440.71 8449.29 8457.82 8466.33 8474.85 8483.58 8492.02 8500.49 8509.11 8517.58 8526.14 8534.5 8542.95 8551.38 8559.88 8568.35 8576.77 8585.13 8593.64 8601.98 8610.3 8618.69 8627.09 8635.39 8643.71 8651.94 8660.35 8668.62 8676.95 8685.17 8693.31 8701.54 8709.94 8717.95 8726.16 8734.42 8742.44 8750.65 8758.78 8766.95 8774.93 8783.04 8791.06 8799.04 8807.24 8815.14 8823.07 8831.11 8838.95 8846.89 8854.82 8862.76 8870.54 8878.38 8886.28 8893.96 8901.83 8909.59 8917.33 8925.09 8932.82 8940.45 8948.08 8955.7 8963.49 8970.97 8978.51 8986.21 8993.69 9001.17 9008.61 9016.15 9023.45 9030.88 9038.32 9045.7 9053.03 9060.29 9067.68 9074.85 9082.15 9089.33 9096.5 9103.59 9110.83 9117.88 9124.88 9132 9138.91 9146.02 9152.96 9159.77 9166.74 9173.63 9180.4 9187.32 9194.2 9200.8 9207.54 9214.18 9220.9 9227.51 9234.14 9240.79 9247.34 9253.74 9260.13 9266.67 9273.17 9279.45 9285.84 9292.14 9298.43 9304.56 9310.8 9316.98 9323.12 9329.25 9335.29 9341.29 9347.28 9353.29 9359.18 9365.11 9371.05 9376.87 9382.68 9388.27 9394.05 9399.7 9405.39 9410.85 9416.49 9422.03 9427.49 9432.91 9438.33 9443.66 9448.99 9454.29 9459.4 9464.73 9469.86 9474.94 9480.13 9485.1 9490.08 9495.03 9499.99 9504.8 9509.65 9514.45 9519.08 9523.82 9528.56 9533.13 9537.69 9542.3 9546.72 9551.07 9555.48 9559.82 9564.13 9568.35 9572.62 9576.78 9580.93 9584.98 9588.97 9593.02 9596.91 9600.84 9604.62 9608.53 9612.26 9615.92 9619.62 9623.21 9626.79 9630.32 9633.72 9637.16 9640.49 9643.81 9647.06 9650.34 9653.51 9656.64 9659.63 9662.74 9665.6 9668.7 9671.54 9674.29 9677.14 9679.8 9682.61 9685.15 9687.76 9690.27 9692.74 9695.15 9697.56 9699.84 9702.07 9704.4 9706.43 9708.59 9710.63 9712.7 9714.7 9716.57 9718.5 9720.25 9722.06 9723.76 9725.35 9726.97 9728.52 9730.08 9731.48 9732.8 9734.17 9735.45 9736.73 9737.87 9738.95 9740.09 9741.08 9741.97 9742.95 9743.75 9744.6 9745.39 9746.03 9746.68 9747.3 9747.82 9748.32 9748.68 9749.08 9749.37 9749.69 9749.84 9750.08 9750.16 9750.21 9750.24 9750.18 9750.05 9749.9 9749.64 9749.41 9749.08 9748.69 9748.3 9747.8 9747.24 9746.69 9746.09 9745.34 9744.6 9743.8 9742.86 9742.06 9741.02 9740.05 9738.91 9737.85 9736.66 9735.48 9734.18 9732.81 9731.44 9730.02 9728.49 9726.98 9725.39 9723.7 9721.97 9720.28 9718.42 9716.64 9714.74 9712.72 9710.67 9708.59 9706.58 9704.33 9702.14 9699.78 9697.47 9695.17 9692.73 9690.28 9687.71 9685.14 9682.54 9679.88 9677.11 9674.37 9671.54 9668.62 9665.68 9662.69 9659.7 9656.58 9653.54 9650.36 9647.08 9643.77 9640.42 9637.18 9633.71 9630.26 9626.73
7896.14 7905.03 7913.75 7922.58 7931.24 7940.2 7948.93 7957.63 7966.51 7975.35 7983.99 7992.87 8001.62 8010.51 8019.26 8028.08 8036.91 8045.7 8054.52 8063.16 8072.02 8080.81 8089.55 8098.3 8107.19 8115.97 8124.66 8133.33 8142.18 8150.99 8159.78 8168.35 8177.25 8185.93 8194.77 8203.52 8212.16 8220.94 8229.6 8238.39 8247.13 8255.84 8264.5 8273.24 8282 8290.55 8299.29 8307.98 8316.65 8325.27 8334.07 8342.65 8351.24 8359.91 8368.54 8377.1 8385.87 8394.44 8403.1 8411.64 8420.22 8428.78 8437.4 8446.06 8454.51 8463.11 8471.55 8480.14 8488.58 8497.17 8505.79 8514.16 8522.7 8531.1 8539.6 8547.92 8556.41 8564.92 8573.2 8581.72 8590.08 8598.52 8606.78 8615.11 8623.53 8631.81 8640.12 8648.52 8656.83 8665.1 8673.3 8681.53 8689.75 8698.06 8706.07 8714.31 8722.51 8730.66 8738.75 8746.89 8755.06 8763.13 8771.17 8779.32 8787.37 8795.25 8803.38 8811.27 8819.29 8827.33 8835.26 8843.07 8851.03 8858.88 8866.75 8874.47 8882.25 8890.13 8898 8905.64 8913.48 8921.11 8928.97 8936.57 8944.18 8951.84 8959.46 8966.94 8974.59 8982.1 8989.58 8997.13 9004.64 9012.05 9019.47 9026.91 9034.34 9041.58 9048.77 9056.25 9063.47 9070.73 9077.92 9085.23 9092.35 9099.56 9106.61 9113.81 9120.76 9127.79 9134.77 9141.79 9148.78 9155.63 9162.57 9169.38 9176.26 9183.02 9189.84 9196.53 9203.23 9209.91 9216.65 9223.32 9229.82 9236.35 9242.96 9249.42 9255.89 9262.41 9268.79 9275.03 9281.34 9287.74 9294.01 9300.22 9306.44 9312.61 9318.68 9324.78 9330.89 9336.91 9342.87 9348.8 9354.72 9360.6 9366.43 9372.25 9378.07 9383.71 9389.51 9395.16 9400.79 9406.32 9411.88 9417.37 9422.84 9428.32 9433.68 9438.97 9444.25 9449.59 9454.83 9459.98 9465.17 9470.31 9475.38 9480.4 9485.4 9490.24 9495.2 9500.04 9504.96 9509.6 9514.38 9519.1 9523.76 9528.3 9532.91 9537.39 9541.85 9546.41 9550.69 9555.05 9559.38 9563.55 9567.77 9571.93 9576.16 9580.07 9584.15 9588.15 9592.09 9596 9599.79 9603.61 9607.32 9611.06 9614.71 9618.31 9621.8 9625.31 9628.84 9632.23 9635.56 9638.91 9642.18 9645.44 9648.53 9651.7 9654.7 9657.72 9660.78 9663.62 9666.53 9669.42 9672.13 9674.82 9677.57 9680.14 9682.73 9685.25 9687.67 9690.25 9692.51 9694.81 9697.13 9699.33 9701.53 9703.61 9705.66 9707.71 9709.65 9711.49 9713.41 9715.27 9717.06 9718.62 9720.39 9721.93 9723.46 9724.96 9726.35 9727.76 9729.05 9730.34 9731.67 9732.79 9733.82 9735.03 9736.03 9736.92 9737.84 9738.7 9739.46 9740.27 9740.91 9741.63 9742.19 9742.74 9743.16 9743.6 9744.06 9744.33 9744.6 9744.79 9744.92 9745.1 9745.18 9745.18 9745.07 9744.97 9744.81 9744.59 9744.33 9744.08 9743.58 9743.18 9742.76 9742.13 9741.61 9740.95 9740.25 9739.49 9738.66 9737.85 9737.03 9735.97 9734.9 9733.92 9732.71 9731.61 9730.4 9729.08 9727.73 9726.37 9724.95 9723.45 9721.93 9720.33 9718.61 9716.95 9715.21 9713.39 9711.51 9709.65 9707.71 9705.62 9703.64 9701.51 9699.3 9697.09 9694.82 9692.53 9690.21 9687.75 9685.3 9682.74 9680.14 9677.51 9674.89 9672.11 9669.35 9666.56 9663.68 9660.82 9657.75 9654.77 9651.67 9648.58 9645.36 9642.17 9638.9 9635.6 9632.25 9628.83 9625.37 9621.77
7893.41 7902.17 7910.97 7919.68 7928.69 7937.33 7946.24 7954.87 7963.66 7972.48 7981.21 7990.07 7998.84 8007.64 8016.28 8025.17 8033.92 8042.62 8051.55 8060.31 8068.99 8077.83 8086.53 8095.35 8104.04 8113.01 8121.71 8130.45 8139.19 8147.95 8156.81 8165.26 8174.22 8182.82 8191.7 8200.46 8209.02 8217.95 8226.51 8235.18 8243.92 8252.68 8261.32 8270.09 8278.73 8287.5 8296.04 8304.75 8313.47 8322.21 8330.78 8339.4 8347.88 8356.63 8365.39 8373.89 8382.53 8391.08 8399.75 8408.33 8417.02 8425.59 8434.14 8442.71 8451.24 8459.71 8468.34 8476.74 8485.35 8493.61 8502.15 8510.73 8519.27 8527.62 8536.18 8544.62 8553 8561.5 8569.8 8578.21 8586.61 8594.94 8603.3 8611.65 8619.96 8628.24 8636.58 8644.92 8653.07 8661.41 8669.64 8677.92 8686.11 8694.27 8702.48 8710.7 8718.78 8727.03 8735.1 8743.17 8751.26 8759.45 8767.37 8775.58 8783.55 8791.53 8799.43 8807.44 8815.58 8823.37 8831.43 8839.31 8847.06 8854.89 8862.88 8870.56 8878.55 8886.28 8894.04 8901.81 8909.47 8917.23 8924.91 8932.49 8940.34 8947.73 8955.31 8963.02 8970.58 8978.16 8985.46 8993.04 9000.47 9007.9 9015.42 9022.83 9030.16 9037.54 9044.87 9052.09 9059.51 9066.69 9073.77 9080.98 9088.12 9095.29 9102.38 9109.46 9116.57 9123.59 9130.58 9137.56 9144.49 9151.33 9158.21 9165.14 9171.95 9178.79 9185.49 9192.2 9199.03 9205.66 9212.26 9218.91 9225.49 9231.97 9238.49 9244.99 9251.51 9257.88 9264.26 9270.59 9276.96 9283.35 9289.63 9295.73 9301.96 9308.21 9314.24 9320.35 9326.43 9332.36 9338.44 9344.32 9350.14 9356.12 9361.89 9367.77 9373.46 9379.18 9384.91 9390.6 9396.21 9401.77 9407.26 9412.81 9418.22 9423.67 9429.06 9434.32 9439.64 9444.98 9450.14 9455.37 9460.5 9465.62 9470.62 9475.59 9480.57 9485.67 9490.5 9495.33 9500.07 9504.89 9509.62 9514.32 9518.94 9523.56 9528.11 9532.58 9537.05 9541.51 9545.85 9550.22 9554.5 9558.79 9562.97 9567.08 9571.2 9575.24 9579.25 9583.25 9587.23 9591.02 9594.77 9598.59 9602.39 9606.08 9609.71 9613.29 9616.86 9620.37 9623.83 9627.32 9630.6 9633.92 9637.19 9640.45 9643.61 9646.66 9649.7 9652.76 9655.77 9658.64 9661.54 9664.26 9667.08 9669.8 9672.49 9675.13 9677.72 9680.26 9682.75 9685.15 9687.38 9689.78 9692.08 9694.33 9696.4 9698.58 9700.61 9702.62 9704.59 9706.47 9708.33 9710.16 9711.85 9713.6 9715.19 9716.8 9718.35 9719.84 9721.24 9722.61 9724.03 9725.21 9726.47 9727.71 9728.75 9729.8 9730.87 9731.81 9732.66 9733.56 9734.35 9735.12 9735.85 9736.48 9737.04 9737.61 9738.06 9738.5 9738.85 9739.16 9739.48 9739.7 9739.88 9739.9 9739.95 9740 9739.89 9739.88 9739.73 9739.43 9739.13 9738.86 9738.52 9738.05 9737.54 9737.09 9736.49 9735.81 9735.09 9734.33 9733.61 9732.74 9731.81 9730.83 9729.8 9728.76 9727.66 9726.53 9725.27 9724.02 9722.59 9721.34 9719.82 9718.35 9716.8 9715.21 9713.61 9711.88 9710.14 9708.3 9706.53 9704.56 9702.62 9700.65 9698.54 9696.47 9694.29 9692.04 9689.78 9687.51 9685.14 9682.71 9680.23 9677.69 9675.07 9672.52 9669.77 9667.08 9664.35 9661.5 9658.7 9655.81 9652.78 9649.73 9646.65 9643.54 9640.39 9637.12 9633.93 9630.67 9627.34 9623.8 9620.41 9616.88
7890.77 7899.47 7908.16 7917.07 7925.76 7934.43 7943.2 7952.12 7960.81 7969.68 7978.47 7987.25 7995.95 8004.76 8013.49 8022.38 8031.07 8039.78 8048.54 8057.34 8065.99 8074.94 8083.74 8092.43 8101.15 8109.93 8118.69 8127.38 8136.08 8144.88 8153.53 8162.37 8171.1 8179.85 8188.6 8197.43 8205.92 8214.71 8223.46 8232.12 8240.73 8249.54 8258.28 8266.96 8275.62 8284.18 8292.95 8301.68 8310.21 8318.87 8327.52 8336.22 8344.74 8353.5 8362.08 8370.69 8379.41 8387.81 8396.34 8405.03 8413.56 8422.17 8430.64 8439.19 8447.74 8456.36 8464.8 8473.33 8481.83 8490.31 8498.88 8507.18 8515.83 8524.16 8532.65 8541.04 8549.45 8557.9 8566.13 8574.71 8582.99 8591.37 8599.74 8608.12 8616.42 8624.66 8632.95 8641.26 8649.54 8657.84 8665.99 8674.21 8682.51 8690.48 8698.82 8707.01 8715.21 8723.26 8731.42 8739.54 8747.51 8755.6 8763.66 8771.66 8779.79 8787.74 8795.86 8803.77 8811.65 8819.6 8827.5 8835.43 8843.28 8851.14 8858.96 8866.85 8874.58 8882.28 8890.11 8897.91 8905.56 8913.22 8920.88 8928.55 8936.14 8943.89 8951.34 8959.02 8966.42 8974.08 8981.48 8989.03 8996.5 9003.85 9011.36 9018.64 9026.03 9033.33 9040.71 9047.97 9055.16 9062.39 9069.7 9076.83 9083.89 9091.07 9098.28 9105.14 9112.25 9119.29 9126.26 9133.24 9140.22 9147.08 9153.9 9160.79 9167.63 9174.43 9181.15 9187.92 9194.59 9201.14 9207.9 9214.46 9221.04 9227.68 9234.04 9240.59 9247.08 9253.36 9259.79 9266.15 9272.47 9278.8 9285.05 9291.31 9297.43 9303.64 9309.68 9315.63 9321.82 9327.84 9333.78 9339.71 9345.59 9351.44 9357.35 9363.06 9368.83 9374.53 9380.17 9385.95 9391.55 9396.99 9402.59 9408.14 9413.52 9418.88 9424.37 9429.68 9434.92 9440.17 9445.36 9450.54 9455.76 9460.82 9465.79 9470.82 9475.86 9480.92 9485.72 9490.49 9495.37 9500.09 9504.79 9509.51 9514.13 9518.67 9523.27 9527.69 9532.17 9536.66 9540.96 9545.39 9549.56 9553.84 9557.97 9562.21 9566.28 9570.38 9574.33 9578.32 9582.22 9586.07 9589.97 9593.73 9597.43 9601.14 9604.83 9608.34 9611.94 9615.39 9618.9 9622.21 9625.63 9628.89 9632.16 9635.33 9638.54 9641.68 9644.71 9647.72 9650.73 9653.59 9656.45 9659.32 9662.05 9664.67 9667.42 9670.01 9672.62 9675.07 9677.55 9680 9682.38 9684.74 9686.95 9689.13 9691.36 9693.43 9695.46 9697.47 9699.39 9701.38 9703.18 9705.03 9706.74 9708.39 9710.08 9711.63 9713.2 9714.71 9716.15 9717.58 9718.81 9720.05 9721.3 9722.46 9723.62 9724.78 9725.62 9726.7 9727.51 9728.35 9729.23 9729.91 9730.64 9731.29 9731.88 9732.45 9732.87 9733.28 9733.67 9733.94 9734.29 9734.53 9734.63 9734.76 9734.82 9734.72 9734.78 9734.68 9734.47 9734.28 9733.98 9733.66 9733.33 9732.95 9732.38 9731.84 9731.24 9730.66 9729.93 9729.23 9728.44 9727.6 9726.61 9725.65 9724.69 9723.53 9722.48 9721.33 9720.07 9718.83 9717.48 9716.12 9714.67 9713.21 9711.64 9710.12 9708.41 9706.76 9704.99 9703.17 9701.41 9699.48 9697.43 9695.54 9693.4 9691.32 9689.13 9686.98 9684.67 9682.38 9680.05 9677.62 9675.15 9672.57 9670.06 9667.46 9664.76 9662.08 9659.32 9656.45 9653.58 9650.7 9647.74 9644.69 9641.66 9638.53 9635.39 9632.16 9628.85 9625.59 9622.25 9618.87 9615.42 9611.89
7887.87 7896.61 7905.37 7914.19 7922.94 7931.67 7940.5 7949.23 7957.89 7966.8 7975.51 7984.28 7993.13 8001.91 8010.63 8019.29 8028.17 8036.85 8045.69 8054.43 8063.12 8071.98 8080.75 8089.34 8098.3 8106.84 8115.55 8124.4 8133.13 8141.86 8150.59 8159.35 8168 8176.68 8185.47 8194.12 8202.8 8211.48 8220.21 8228.9 8237.61 8246.34 8254.97 8263.72 8272.38 8280.94 8289.75 8298.38 8306.94 8315.54 8324.23 8332.96 8341.48 8350.2 8358.82 8367.29 8376.03 8384.55 8393.14 8401.68 8410.19 8418.76 8427.29 8435.91 8444.34 8452.76 8461.43 8470.03 8478.37 8486.75 8495.32 8503.79 8512.25 8520.66 8529.16 8537.54 8546.01 8554.26 8562.73 8571.04 8579.49 8587.76 8596.16 8604.39 8612.74 8621.06 8629.36 8637.71 8645.86 8654 8662.31 8670.54 8678.76 8686.92 8695.13 8703.31 8711.29 8719.43 8727.7 8735.67 8743.77 8751.9 8759.99 8767.85 8775.88 8783.91 8791.8 8799.91 8807.78 8815.52 8823.56 8831.51 8839.32 8847.22 8855.11 8862.78 8870.5 8878.46 8886.21 8893.87 8901.61 8909.27 8916.91 8924.63 8932.17 8939.91 8947.31 8954.89 8962.41 8969.94 8977.43 8984.91 8992.37 8999.79 9007.2 9014.48 9021.9 9029.21 9036.46 9043.68 9051.12 9058.16 9065.36 9072.59 9079.78 9086.79 9093.88 9101.05 9108.03 9114.99 9121.89 9128.95 9135.84 9142.77 9149.57 9156.35 9163.16 9170.05 9176.82 9183.44 9190.13 9196.81 9203.45 9210.04 9216.56 9223.17 9229.68 9236.08 9242.59 9248.91 9255.33 9261.72 9267.89 9274.21 9280.4 9286.66 9292.79 9299.02 9305.14 9311.17 9317.19 9323.16 9329.14 9335.07 9340.94 9346.85 9352.73 9358.41 9364.18 9369.86 9375.6 9381.23 9386.82 9392.36 9397.88 9403.36 9408.79 9414.21 9419.63 9424.88 9430.26 9435.44 9440.55 9445.76 9450.9 9456.07 9461.1 9465.99 9471.04 9475.91 9480.86 9485.64 9490.49 9495.28 9499.94 9504.58 9509.26 9513.82 9518.32 9522.85 9527.27 9531.69 9536.08 9540.37 9544.65 9548.91 9553.07 9557.18 9561.29 9565.33 9569.44 9573.28 9577.35 9581.18 9584.96 9588.68 9592.43 9596.16 9599.7 9603.33 9606.92 9610.35 9613.83 9617.17 9620.53 9623.87 9627.07 9630.26 9633.45 9636.52 9639.67 9642.69 9645.6 9648.49 9651.35 9654.22 9656.93 9659.66 9662.36 9664.95 9667.5 9670.03 9672.44 9674.85 9677.18 9679.52 9681.74 9683.91 9686.17 9688.26 9690.32 9692.32 9694.26 9696.15 9697.97 9699.8 9701.55 9703.22 9704.88 9706.5 9708.03 9709.51 9710.91 9712.31 9713.61 9714.91 9716.12 9717.28 9718.42 9719.39 9720.45 9721.44 9722.27 9723.18 9723.96 9724.68 9725.43 9726.11 9726.62 9727.18 9727.67 9728.01 9728.43 9728.81 9729.09 9729.2 9729.46 9729.49 9729.51 9729.59 9729.51 9729.42 9729.27 9728.98 9728.75 9728.42 9728.08 9727.69 9727.24 9726.64 9726.08 9725.44 9724.71 9723.94 9723.24 9722.33 9721.38 9720.38 9719.45 9718.4 9717.3 9716.1 9714.88 9713.6 9712.32 9710.93 9709.49 9707.97 9706.46 9704.92 9703.2 9701.55 9699.79 9698.03 9696.12 9694.24 9692.3 9690.35 9688.26 9686.17 9683.96 9681.78 9679.48 9677.31 9674.87 9672.5 9670.01 9667.48 9664.91 9662.39 9659.61 9656.96 9654.23 9651.36 9648.46 9645.63 9642.59 9639.59 9636.54 9633.43 9630.27 9627.15 9623.75 9620.56 9617.15 9613.76 9610.36 9606.91
7885.07 7893.85 7902.49 7911.28 7920.07 7928.83 7937.51 7946.41 7955.16 7963.85 7972.49 7981.36 7990.17 7998.92 8007.66 8016.45 8025.14 8033.89 8042.53 8051.31 8060.23 8068.9 8077.61 8086.4 8095.23 8103.9 8112.57 8121.36 8130.14 8138.69 8147.47 8156.16 8164.96 8173.68 8182.36 8191.03 8199.72 8208.43 8217.03 8225.72 8234.44 8243.29 8251.8 8260.53 8269.11 8277.73 8286.46 8295.01 8303.77 8312.36 8320.98 8329.65 8338.08 8346.81 8355.38 8363.91 8372.52 8381.01 8389.76 8398.17 8406.83 8415.29 8423.89 8432.32 8440.86 8449.34 8457.9 8466.46 8474.91 8483.34 8491.87 8500.23 8508.76 8517.15 8525.53 8533.93 8542.38 8550.85 8559.08 8567.48 8575.71 8584 8592.47 8600.74 8609.03 8617.44 8625.65 8633.98 8642.08 8650.47 8658.56 8666.76 8674.95 8683.2 8691.37 8699.5 8707.62 8715.78 8723.78 8731.89 8740.01 8747.92 8756.04 8764.08 8772.08 8780.03 8787.88 8795.89 8803.86 8811.84 8819.65 8827.54 8835.34 8843.16 8851.11 8858.84 8866.71 8874.29 8882.06 8889.82 8897.46 8905.15 8912.83 8920.47 8928.08 8935.67 8943.26 8950.73 8958.27 8965.88 8973.27 8980.7 8988.14 8995.6 9003.02 9010.28 9017.67 9024.98 9032.28 9039.46 9046.67 9053.88 9061.08 9068.23 9075.5 9082.5 9089.55 9096.62 9103.63 9110.73 9117.56 9124.43 9131.47 9138.39 9145.2 9152.08 9158.85 9165.55 9172.41 9179.17 9185.71 9192.36 9199.05 9205.62 9212.15 9218.7 9225.23 9231.49 9238.03 9244.47 9250.77 9257.15 9263.47 9269.68 9275.9 9282.05 9288.24 9294.36 9300.56 9306.57 9312.54 9318.61 9324.65 9330.42 9336.25 9342.21 9348.01 9353.74 9359.43 9365.12 9370.91 9376.45 9382.03 9387.65 9393.14 9398.61 9404.08 9409.43 9414.78 9420.13 9425.35 9430.64 9435.84 9440.98 9446.11 9451.12 9456.29 9461.25 9466.23 9471.08 9476 9480.78 9485.59 9490.3 9494.95 9499.62 9504.33 9508.78 9513.36 9517.79 9522.3 9526.72 9531.14 9535.42 9539.67 9543.9 9548.04 9552.22 9556.36 9560.31 9564.38 9568.29 9572.21 9576.14 9579.85 9583.68 9587.39 9591.05 9594.64 9598.2 9601.79 9605.25 9608.66 9612.15 9615.49 9618.81 9622.03 9625.16 9628.34 9631.53 9634.44 9637.45 9640.43 9643.38 9646.25 9649.08 9651.71 9654.48 9657.12 9659.77 9662.33 9664.87 9667.29 9669.68 9671.99 9674.3 9676.61 9678.76 9680.94 9683.09 9685.17 9687.12 9689.08 9690.94 9692.81 9694.59 9696.36 9697.96 9699.56 9701.25 9702.75 9704.18 9705.63 9706.98 9708.41 9709.64 9710.85 9712.04 9713.11 9714.22 9715.28 9716.18 9717.08 9717.97 9718.73 9719.44 9720.2 9720.72 9721.3 9721.9 9722.35 9722.79 9723.17 9723.52 9723.7 9723.9 9724.14 9724.15 9724.31 9724.34 9724.24 9724.14 9723.94 9723.81 9723.55 9723.2 9722.8 9722.39 9721.96 9721.36 9720.85 9720.18 9719.44 9718.71 9717.94 9717.1 9716.12 9715.23 9714.19 9713.11 9712.02 9710.9 9709.57 9708.35 9707.01 9705.67 9704.21 9702.74 9701.23 9699.61 9698.09 9696.38 9694.54 9692.77 9691.01 9689.05 9687.16 9685.09 9683.06 9680.95 9678.8 9676.59 9674.4 9672.08 9669.64 9667.27 9664.85 9662.34 9659.71 9657.11 9654.48 9651.79 9649.06 9646.21 9643.31 9640.45 9637.54 9634.52 9631.48 9628.36 9625.23 9621.96 9618.79 9615.43 9612.12 9608.65 9605.28 9601.76
7882.22 7890.9 7899.66 7908.52 7917.2 7925.84 7934.66 7943.43 7952.13 7961.01 7969.68 7978.51 7987.2 7995.88 8004.59 8013.4 8022.07 8030.89 8039.58 8048.39 8057.13 8065.78 8074.53 8083.31 8092.09 8100.76 8109.49 8118.27 8126.81 8135.76 8144.38 8153.1 8161.71 8170.46 8179.17 8187.81 8196.43 8205.22 8213.88 8222.45 8231.25 8239.89 8248.58 8257.26 8265.78 8274.49 8283.13 8291.77 8300.44 8309.05 8317.55 8326.21 8334.77 8343.42 8352.01 8360.62 8369.25 8377.83 8386.27 8394.91 8403.27 8411.77 8420.37 8428.93 8437.39 8445.92 8454.32 8462.88 8471.44 8479.81 8488.29 8496.62 8505.05 8513.58 8521.88 8530.36 8538.81 8547.21 8555.54 8563.82 8572.2 8580.52 8588.77 8597.04 8605.37 8613.69 8622 8630.16 8638.47 8646.62 8654.9 8662.99 8671.05 8679.41 8687.55 8695.73 8703.77 8711.88 8719.93 8728.16 8736.08 8744.08 8752.09 8760.27 8768.1 8776.05 8784.09 8791.91 8800.04 8807.78 8815.61 8823.66 8831.35 8839.3 8847.09 8854.75 8862.51 8870.36 8878.06 8885.81 8893.38 8901.01 8908.84 8916.42 8924.04 8931.51 8939.11 8946.65 8954.18 8961.72 8969.09 8976.54 8983.99 8991.31 8998.64 9006.08 9013.36 9020.71 9027.94 9035.21 9042.4 9049.67 9056.8 9063.97 9071.03 9078.11 9085.23 9092.32 9099.28 9106.19 9113.3 9120.23 9127.09 9133.97 9140.79 9147.53 9154.42 9161.15 9167.82 9174.61 9181.22 9187.96 9194.49 9201.04 9207.56 9214.19 9220.61 9227.05 9233.45 9239.9 9246.29 9252.54 9258.75 9265.09 9271.29 9277.49 9283.57 9289.75 9295.82 9301.91 9307.93 9313.84 9319.8 9325.76 9331.62 9337.41 9343.25 9349.03 9354.75 9360.46 9366.12 9371.74 9377.29 9382.79 9388.36 9393.78 9399.26 9404.58 9410.06 9415.27 9420.55 9425.74 9430.88 9436.08 9441.25 9446.3 9451.36 9456.31 9461.26 9466.11 9471.04 9475.92 9480.62 9485.33 9490.09 9494.68 9499.29 9503.88 9508.48 9512.93 9517.3 9521.73 9526.14 9530.35 9534.61 9538.84 9542.98 9547.21 9551.31 9555.3 9559.32 9563.22 9567.11 9571.04 9574.81 9578.59 9582.29 9586.03 9589.48 9593.08 9596.62 9600.25 9603.57 9606.93 9610.23 9613.61 9616.85 9620.03 9623.15 9626.25 9629.32 9632.35 9635.35 9638.24 9641.03 9643.85 9646.52 9649.26 9651.91 9654.5 9657.12 9659.57 9662.06 9664.42 9666.76 9669.16 9671.29 9673.56 9675.66 9677.7 9679.82 9681.88 9683.84 9685.65 9687.51 9689.27 9690.96 9692.73 9694.37 9695.9 9697.52 9698.96 9700.4 9701.73 9703.13 9704.41 9705.56 9706.76 9707.79 9708.9 9709.87 9710.89 9711.78 9712.57 9713.38 9714.17 9714.86 9715.49 9716.12 9716.61 9717.08 9717.51 9717.82 9718.18 9718.53 9718.68 9718.81 9718.94 9718.97 9718.91 9718.96 9718.84 9718.63 9718.41 9718.24 9717.86 9717.53 9717.04 9716.58 9716.12 9715.5 9714.84 9714.11 9713.43 9712.55 9711.8 9710.86 9709.96 9708.89 9707.8 9706.72 9705.54 9704.35 9703.09 9701.7 9700.4 9698.91 9697.47 9695.98 9694.38 9692.69 9690.99 9689.37 9687.59 9685.63 9683.77 9681.94 9679.85 9677.74 9675.74 9673.53 9671.4 9669.1 9666.78 9664.43 9662.05 9659.55 9657.11 9654.57 9651.85 9649.18 9646.6 9643.78 9641.03 9638.25 9635.33 9632.35 9629.41 9626.24 9623.18 9620.04 9616.81 9613.6 9610.38 9606.94 9603.52 9600.2 9596.64
7879.37 7888.01 7896.86 7905.52 7914.23 7922.98 7931.86 7940.53 7949.32 7958 7966.81 7975.47 7984.14 7992.97 8001.68 8010.4 8018.98 8027.79 8036.75 8045.37 8054.09 8062.73 8071.49 8080.3 8088.97 8097.62 8106.4 8115.1 8123.91 8132.52 8141.17 8149.9 8158.54 8167.31 8175.96 8184.59 8193.22 8201.92 8210.6 8219.18 8227.95 8236.66 8245.26 8253.99 8262.49 8271.23 8279.93 8288.42 8296.94 8305.64 8314.26 8322.86 8331.47 8339.99 8348.53 8357.09 8365.72 8374.3 8382.81 8391.52 8399.96 8408.38 8416.93 8425.46 8433.93 8442.34 8450.83 8459.49 8467.84 8476.19 8484.6 8493.22 8501.61 8509.98 8518.32 8526.66 8535.14 8543.54 8551.77 8560.19 8568.49 8576.73 8585.11 8593.24 8601.65 8609.92 8618.13 8626.48 8634.64 8642.92 8651.09 8659.31 8667.45 8675.51 8683.75 8691.77 8699.88 8708.02 8716.08 8724.03 8732.36 8740.11 8748.25 8756.24 8764.22 8772.2 8780 8788.09 8795.92 8803.82 8811.63 8819.53 8827.36 8835.19 8842.98 8850.83 8858.46 8866.25 8873.87 8881.6 8889.4 8897.02 8904.44 8912.17 8919.84 8927.31 8934.9 8942.47 8949.92 8957.39 8964.88 8972.38 8979.77 8987.17 8994.44 9001.88 9009.12 9016.44 9023.74 9030.91 9038.15 9045.34 9052.49 9059.58 9066.7 9073.85 9080.84 9087.95 9094.92 9101.88 9108.87 9115.77 9122.63 9129.51 9136.33 9143.22 9149.98 9156.67 9163.35 9169.99 9176.69 9183.19 9189.92 9196.58 9203.07 9209.55 9216 9222.5 9228.81 9235.21 9241.57 9247.94 9254.13 9260.43 9266.62 9272.73 9278.93 9285.12 9291.19 9297.16 9303.21 9309.19 9315.12 9321.07 9326.8 9332.67 9338.52 9344.24 9349.92 9355.69 9361.3 9366.95 9372.45 9378.14 9383.52 9388.95 9394.32 9399.74 9405.06 9410.41 9415.66 9420.85 9426.05 9431.22 9436.34 9441.39 9446.37 9451.33 9456.32 9461.21 9466.02 9470.87 9475.7 9480.36 9485.04 9489.72 9494.31 9498.94 9503.38 9507.91 9512.3 9516.64 9521.05 9525.27 9529.63 9533.85 9537.91 9542.14 9546.19 9550.18 9554.13 9558.13 9562 9565.88 9569.7 9573.48 9577.17 9580.84 9584.43 9587.93 9591.58 9594.93 9598.41 9601.8 9605.11 9608.49 9611.66 9614.91 9617.96 9621.09 9624.09 9627.04 9630.08 9632.95 9635.8 9638.58 9641.36 9644 9646.72 9649.27 9651.87 9654.32 9656.78 9659.19 9661.58 9663.84 9666.08 9668.22 9670.4 9672.51 9674.53 9676.46 9678.48 9680.38 9682.18 9684.03 9685.75 9687.39 9689.08 9690.67 9692.15 9693.58 9695.12 9696.39 9697.77 9698.96 9700.19 9701.38 9702.47 9703.5 9704.48 9705.51 9706.43 9707.26 9708.06 9708.83 9709.46 9710.18 9710.64 9711.27 9711.67 9712.15 9712.56 9712.83 9713.11 9713.27 9713.42 9713.62 9713.62 9713.59 9713.53 9713.52 9713.34 9713.01 9712.82 9712.55 9712.18 9711.7 9711.22 9710.72 9710.15 9709.51 9708.77 9708.08 9707.27 9706.33 9705.56 9704.61 9703.53 9702.47 9701.41 9700.22 9699.07 9697.73 9696.49 9695.07 9693.65 9692.11 9690.62 9689.05 9687.41 9685.67 9683.97 9682.22 9680.43 9678.49 9676.52 9674.6 9672.53 9670.44 9668.24 9666.03 9663.79 9661.52 9659.19 9656.83 9654.36 9651.8 9649.28 9646.63 9644.07 9641.29 9638.61 9635.81 9632.92 9629.95 9627.16 9624.07 9621.09 9617.92 9614.86 9611.63 9608.35 9605.08 9601.82 9598.47 9595.01 9591.45
7876.46 7885.15 7893.87 7902.75 7911.47 7920.04 7928.86 7937.51 7946.41 7955.19 7963.8 7972.49 7981.27 7989.95 7998.64 8007.39 8015.98 8024.92 8033.62 8042.27 8050.87 8059.62 8068.4 8077 8085.79 8094.57 8103.25 8111.95 8120.66 8129.23 8138 8146.67 8155.39 8164.12 8172.66 8181.44 8190.02 8198.79 8207.38 8216.02 8224.66 8233.34 8242 8250.61 8259.31 8267.76 8276.51 8285.06 8293.62 8302.22 8310.9 8319.43 8328.01 8336.68 8345.13 8353.73 8362.24 8370.79 8379.34 8387.81 8396.35 8404.9 8413.39 8421.91 8430.47 8438.87 8447.29 8455.8 8464.18 8472.7 8481.15 8489.5 8497.93 8506.36 8514.66 8523.09 8531.4 8539.79 8548.19 8556.43 8564.73 8573.06 8581.43 8589.67 8597.83 8606.12 8614.4 8622.62 8630.87 8639.01 8647.24 8655.44 8663.58 8671.73 8679.85 8688.06 8695.91 8704.1 8712.15 8720.2 8728.15 8736.31 8744.23 8752.34 8760.24 8768.23 8776.11 8784.08 8791.91 8799.79 8807.58 8815.54 8823.24 8831.17 8838.85 8846.65 8854.4 8862.15 8869.78 8877.5 8885.23 8892.9 8900.38 8908.02 8915.63 8923.24 8930.72 8938.26 8945.7 8953.2 8960.58 8968.11 8975.38 8982.82 8990.25 8997.55 9004.72 9012.12 9019.26 9026.57 9033.71 9041.02 9048.06 9055.22 9062.29 9069.44 9076.44 9083.6 9090.41 9097.47 9104.4 9111.3 9118.18 9125.03 9131.89 9138.73 9145.42 9152.07 9158.83 9165.52 9172.23 9178.75 9185.33 9191.95 9198.49 9204.93 9211.35 9217.81 9224.3 9230.58 9236.95 9243.23 9249.46 9255.9 9261.87 9268.08 9274.24 9280.29 9286.4 9292.41 9298.49 9304.47 9310.37 9316.22 9322.11 9327.91 9333.72 9339.43 9345.2 9350.79 9356.48 9362.11 9367.56 9373.15 9378.57 9384.15 9389.48 9394.83 9400.18 9405.47 9410.79 9416.03 9421.13 9426.24 9431.36 9436.42 9441.45 9446.39 9451.33 9456.21 9461.1 9465.81 9470.61 9475.39 9480.02 9484.71 9489.28 9493.87 9498.41 9502.79 9507.21 9511.62 9515.91 9520.15 9524.56 9528.69 9532.87 9536.98 9541.01 9545.12 9549.02 9552.98 9556.82 9560.78 9564.46 9568.16 9571.92 9575.64 9579.18 9582.71 9586.25 9589.83 9593.16 9596.57 9599.87 9603.18 9606.4 9609.66 9612.75 9615.8 9618.84 9621.88 9624.76 9627.68 9630.45 9633.28 9636.15 9638.77 9641.39 9643.94 9646.56 9649.05 9651.51 9653.89 9656.29 9658.44 9660.66 9662.98 9665.07 9667.16 9669.2 9671.18 9673.11 9674.98 9676.86 9678.64 9680.33 9682.11 9683.69 9685.33 9686.79 9688.3 9689.69 9691.08 9692.37 9693.61 9694.87 9696.01 9697.17 9698.25 9699.17 9700.16 9700.97 9701.94 9702.66 9703.4 9704.09 9704.74 9705.34 9705.77 9706.31 9706.74 9707.12 9707.35 9707.68 9707.85 9708.1 9708.24 9708.15 9708.23 9708.11 9708.04 9707.9 9707.63 9707.42 9707.12 9706.75 9706.34 9705.87 9705.28 9704.76 9704.11 9703.41 9702.65 9701.87 9701.02 9700.12 9699.17 9698.16 9697.11 9696 9694.84 9693.62 9692.32 9691.05 9689.67 9688.3 9686.75 9685.24 9683.66 9682.06 9680.37 9678.64 9676.91 9674.97 9673.15 9671.23 9669.2 9667.19 9665.09 9662.94 9660.79 9658.53 9656.22 9653.89 9651.44 9649.12 9646.57 9644 9641.41 9638.73 9635.96 9633.28 9630.55 9627.71 9624.81 9621.79 9618.84 9615.84 9612.67 9609.62 9606.45 9603.19 9599.89 9596.62 9593.23 9589.73 9586.3
7873.58 7882.3 7891.01 7899.81 7908.46 7917.27 7925.84 7934.62 7943.28 7952.02 7960.7 7969.44 7978.19 7986.82 7995.51 8004.29 8012.89 8021.63 8030.55 8039.13 8047.84 8056.56 8065.28 8074 8082.67 8091.35 8100.03 8108.74 8117.44 8126.12 8134.72 8143.42 8152.09 8160.86 8169.49 8178.09 8186.84 8195.41 8204.08 8212.7 8221.42 8229.87 8238.54 8247.22 8255.96 8264.5 8273.06 8281.68 8290.19 8298.88 8307.55 8316.1 8324.55 8333.12 8341.68 8350.17 8358.69 8367.32 8375.68 8384.44 8393.02 8401.42 8409.88 8418.33 8426.71 8435.29 8443.71 8452.19 8460.66 8469.03 8477.43 8485.91 8494.29 8502.6 8510.95 8519.32 8527.87 8536.05 8544.4 8552.72 8561.04 8569.3 8577.58 8585.83 8594.13 8602.35 8610.55 8618.8 8627.02 8635.26 8643.32 8651.51 8659.68 8667.94 8675.94 8684.09 8692.15 8700.19 8708.11 8716.22 8724.28 8732.29 8740.31 8748.35 8756.28 8764.11 8771.97 8780.15 8787.86 8795.75 8803.57 8811.33 8819.22 8827.1 8834.8 8842.54 8850.22 8857.9 8865.75 8873.38 8881.03 8888.67 8896.13 8903.81 8911.41 8919.08 8926.37 8934 8941.48 8948.96 8956.36 8963.81 8971.14 8978.61 8985.86 8993.1 9000.51 9007.76 9014.95 9022.16 9029.36 9036.54 9043.75 9050.75 9057.9 9065.02 9072.05 9078.96 9086.04 9093.08 9099.88 9106.83 9113.76 9120.5 9127.33 9134.1 9140.88 9147.67 9154.34 9160.95 9167.54 9174.12 9180.69 9187.24 9193.79 9200.23 9206.75 9213.21 9219.67 9225.86 9232.34 9238.53 9244.86 9250.97 9257.25 9263.35 9269.57 9275.61 9281.7 9287.76 9293.65 9299.61 9305.52 9311.39 9317.33 9323.19 9328.79 9334.5 9340.28 9345.92 9351.51 9357.12 9362.81 9368.25 9373.78 9379.15 9384.5 9389.85 9395.14 9400.59 9405.65 9410.99 9416.26 9421.32 9426.41 9431.3 9436.39 9441.33 9446.24 9451.12 9456.04 9460.9 9465.54 9470.33 9475.01 9479.59 9484.23 9488.81 9493.19 9497.7 9502.12 9506.43 9510.79 9515.08 9519.37 9523.52 9527.66 9531.82 9535.8 9539.88 9543.89 9547.83 9551.75 9555.42 9559.39 9563.1 9566.73 9570.42 9574.03 9577.53 9581.09 9584.47 9587.94 9591.31 9594.59 9597.82 9601.11 9604.32 9607.43 9610.52 9613.56 9616.51 9619.49 9622.34 9625.09 9627.9 9630.69 9633.34 9636.06 9638.7 9641.25 9643.71 9646.1 9648.58 9650.79 9653.18 9655.4 9657.54 9659.63 9661.77 9663.85 9665.82 9667.75 9669.62 9671.5 9673.27 9674.97 9676.7 9678.32 9679.85 9681.29 9682.84 9684.34 9685.61 9686.91 9688.21 9689.44 9690.57 9691.66 9692.78 9693.8 9694.7 9695.56 9696.43 9697.19 9697.91 9698.65 9699.26 9699.81 9700.41 9700.81 9701.26 9701.63 9701.9 9702.22 9702.52 9702.6 9702.72 9702.84 9702.72 9702.76 9702.65 9702.42 9702.27 9701.96 9701.67 9701.29 9700.84 9700.34 9699.91 9699.27 9698.71 9697.91 9697.23 9696.43 9695.64 9694.67 9693.68 9692.79 9691.62 9690.53 9689.43 9688.18 9686.93 9685.62 9684.22 9682.79 9681.37 9679.74 9678.26 9676.68 9674.98 9673.23 9671.51 9669.63 9667.68 9665.79 9663.83 9661.76 9659.67 9657.61 9655.38 9653.14 9650.82 9648.54 9646.19 9643.62 9641.21 9638.62 9636.02 9633.38 9630.7 9627.95 9625.2 9622.32 9619.46 9616.52 9613.58 9610.56 9607.37 9604.26 9601.13 9597.88 9594.65 9591.28 9587.92 9584.52 9581.1
7870.67 7879.33 7887.95 7896.66 7905.43 7914.13 7922.82 7931.49 7940.32 7949.1 7957.76 7966.51 7975.19 7983.89 7992.46 8001.31 8009.97 8018.7 8027.36 8035.91 8044.68 8053.47 8062.03 8070.82 8079.46 8088.23 8096.86 8105.56 8114.14 8122.8 8131.47 8140.2 8148.89 8157.58 8166.13 8174.72 8183.43 8192.2 8200.79 8209.37 8218.01 8226.65 8235.26 8243.86 8252.56 8261.08 8269.66 8278.29 8286.88 8295.39 8304.01 8312.61 8321.17 8329.72 8338.15 8346.67 8355.34 8363.76 8372.3 8380.68 8389.23 8397.74 8406.24 8414.69 8423.19 8431.64 8440.07 8448.59 8456.97 8465.36 8473.76 8482.18 8490.59 8498.96 8507.2 8515.72 8524.07 8532.35 8540.72 8548.91 8557.33 8565.51 8573.75 8582.03 8590.27 8598.52 8606.82 8615.04 8623.17 8631.39 8639.38 8647.62 8655.75 8663.87 8671.99 8680.09 8688.12 8696.17 8704.35 8712.31 8720.42 8728.31 8736.2 8744.28 8752.15 8760.19 8768.09 8775.77 8783.72 8791.6 8799.39 8807.31 8815.09 8822.85 8830.65 8838.45 8846.13 8853.79 8861.47 8869.24 8876.78 8884.44 8892.03 8899.38 8907.05 8914.7 8922.16 8929.67 8937.21 8944.62 8952.03 8959.45 8966.8 8974.23 8981.51 8988.72 8996.07 9003.36 9010.65 9017.84 9024.97 9032 9039.28 9046.38 9053.45 9060.41 9067.53 9074.52 9081.44 9088.46 9095.3 9102.27 9109.1 9115.96 9122.7 9129.53 9136.21 9142.98 9149.68 9156.29 9162.91 9169.51 9176.09 9182.67 9189.07 9195.7 9202.06 9208.52 9214.81 9221.12 9227.51 9233.82 9240.06 9246.21 9252.45 9258.65 9264.7 9270.83 9276.85 9282.89 9288.79 9294.76 9300.69 9306.55 9312.37 9318.16 9323.94 9329.72 9335.38 9341.09 9346.55 9352.22 9357.75 9363.23 9368.71 9374.27 9379.58 9384.88 9390.36 9395.49 9400.82 9405.95 9411.19 9416.21 9421.31 9426.44 9431.31 9436.31 9441.18 9446.1 9450.92 9455.71 9460.41 9465.23 9469.76 9474.55 9479.11 9483.47 9488.07 9492.57 9496.97 9501.35 9505.65 9509.96 9514.15 9518.37 9522.41 9526.56 9530.67 9534.72 9538.66 9542.53 9546.51 9550.19 9553.98 9557.79 9561.46 9565.15 9568.8 9572.24 9575.81 9579.24 9582.62 9586.07 9589.31 9592.62 9595.78 9599.02 9602.02 9605.25 9608.21 9611.24 9614.13 9617.03 9619.84 9622.6 9625.4 9628 9630.61 9633.24 9635.8 9638.27 9640.74 9643.03 9645.5 9647.71 9649.9 9652.15 9654.28 9656.24 9658.48 9660.33 9662.38 9664.21 9665.97 9667.8 9669.6 9671.23 9672.85 9674.38 9675.92 9677.36 9678.82 9680.2 9681.51 9682.78 9683.95 9685.09 9686.22 9687.23 9688.26 9689.21 9690.07 9690.93 9691.7 9692.43 9693.22 9693.78 9694.37 9694.89 9695.35 9695.77 9696.16 9696.5 9696.72 9696.97 9697.13 9697.26 9697.22 9697.27 9697.18 9697.12 9696.95 9696.76 9696.53 9696.14 9695.78 9695.34 9694.82 9694.39 9693.73 9693.1 9692.52 9691.78 9690.95 9690.12 9689.19 9688.22 9687.21 9686.16 9685.1 9683.93 9682.74 9681.47 9680.17 9678.83 9677.36 9675.87 9674.36 9672.82 9671.15 9669.5 9667.76 9665.98 9664.17 9662.33 9660.44 9658.42 9656.35 9654.25 9652.18 9649.89 9647.72 9645.44 9643.09 9640.68 9638.24 9635.79 9633.24 9630.65 9628.01 9625.33 9622.58 9619.74 9617.03 9614.08 9611.16 9608.14 9605.14 9602.15 9598.92 9595.8 9592.6 9589.27 9586.08 9582.62 9579.22 9575.77
7867.6 7876.36 7885.1 7893.72 7902.44 7911.07 7919.77 7928.54 7937.34 7945.97 7954.7 7963.27 7972.04 7980.79 7989.43 7998.11 8006.88 8015.5 8024.21 8032.93 8041.46 8050.24 8058.86 8067.59 8076.33 8084.87 8093.59 8102.31 8111.04 8119.57 8128.34 8136.89 8145.63 8154.17 8162.82 8171.59 8180.12 8188.82 8197.43 8205.99 8214.68 8223.2 8231.86 8240.54 8249.18 8257.74 8266.32 8274.75 8283.37 8291.99 8300.58 8309.1 8317.55 8326.25 8334.81 8343.18 8351.75 8360.23 8368.77 8377.3 8385.68 8394.27 8402.67 8411.24 8419.57 8428.04 8436.41 8444.89 8453.34 8461.59 8470.08 8478.42 8486.83 8495.26 8503.63 8511.87 8520.21 8528.52 8536.98 8545.2 8553.42 8561.86 8569.95 8578.28 8586.47 8594.55 8602.84 8611.22 8619.3 8627.37 8635.57 8643.69 8651.8 8659.92 8667.97 8676.04 8684.15 8692.2 8700.23 8708.21 8716.43 8724.24 8732.18 8740.24 8748.08 8756.1 8764 8771.79 8779.68 8787.59 8795.4 8803.08 8810.89 8818.69 8826.54 8834.24 8841.88 8849.67 8857.27 8864.86 8872.45 8880.14 8887.76 8895.28 8902.84 8910.35 8917.93 8925.36 8932.77 8940.36 8947.64 8955.02 8962.48 8969.76 8977.23 8984.34 8991.68 8998.94 9006.22 9013.33 9020.59 9027.63 9034.8 9041.81 9048.95 9056 9062.99 9069.92 9077.02 9083.89 9090.65 9097.6 9104.47 9111.35 9118.18 9124.85 9131.58 9138.37 9145.07 9151.63 9158.3 9164.81 9171.45 9177.92 9184.52 9190.88 9197.27 9203.75 9210.13 9216.45 9222.85 9228.91 9235.27 9241.48 9247.59 9253.83 9259.86 9265.96 9271.85 9277.98 9283.85 9289.88 9295.82 9301.66 9307.61 9313.34 9319 9324.74 9330.46 9336.12 9341.61 9347.26 9352.79 9358.39 9363.72 9369.1 9374.52 9379.95 9385.25 9390.47 9395.79 9400.95 9405.99 9411.2 9416.3 9421.21 9426.27 9431.15 9436.23 9441.03 9445.79 9450.53 9455.29 9460.1 9464.7 9469.26 9474 9478.41 9482.92 9487.33 9491.74 9496.06 9500.45 9504.7 9508.93 9513.06 9517.26 9521.3 9525.51 9529.36 9533.34 9537.29 9541.13 9545.03 9548.67 9552.48 9556.16 9559.78 9563.38 9566.95 9570.42 9573.9 9577.23 9580.62 9584.07 9587.26 9590.44 9593.58 9596.65 9599.78 9602.74 9605.79 9608.71 9611.64 9614.46 9617.22 9619.88 9622.6 9625.24 9627.78 9630.39 9632.95 9635.32 9637.62 9639.89 9642.3 9644.43 9646.62 9648.78 9650.87 9652.98 9654.84 9656.89 9658.62 9660.46 9662.33 9664.03 9665.67 9667.28 9668.86 9670.42 9671.87 9673.35 9674.65 9675.98 9677.27 9678.41 9679.59 9680.7 9681.7 9682.78 9683.7 9684.55 9685.47 9686.12 9686.96 9687.58 9688.28 9688.83 9689.31 9689.77 9690.28 9690.65 9690.92 9691.28 9691.39 9691.57 9691.68 9691.74 9691.77 9691.63 9691.53 9691.42 9691.19 9690.97 9690.55 9690.24 9689.91 9689.32 9688.87 9688.28 9687.61 9686.95 9686.21 9685.39 9684.59 9683.73 9682.71 9681.73 9680.74 9679.56 9678.42 9677.2 9675.91 9674.63 9673.27 9671.89 9670.37 9668.83 9667.28 9665.67 9664.09 9662.31 9660.53 9658.67 9656.8 9654.93 9652.92 9650.9 9648.78 9646.69 9644.51 9642.19 9640.1 9637.65 9635.22 9632.87 9630.29 9627.75 9625.22 9622.55 9619.83 9617.24 9614.42 9611.7 9608.78 9605.8 9602.78 9599.72 9596.73 9593.61 9590.45 9587.25 9584 9580.61 9577.29 9573.86 9570.45
7864.61 7873.45 7882.06 7890.72 7899.44 7908.17 7916.78 7925.47 7934.13 7942.9 7951.61 7960.22 7969.01 7977.64 7986.27 7995.01 8003.68 8012.29 8021.04 8029.65 8038.37 8047.13 8055.77 8064.34 8073.01 8081.63 8090.37 8099.09 8107.83 8116.31 8125.05 8133.65 8142.29 8150.95 8159.57 8168.15 8176.74 8185.47 8194.13 8202.69 8211.33 8219.88 8228.45 8237.07 8245.59 8254.18 8262.84 8271.28 8279.96 8288.51 8296.94 8305.63 8314.05 8322.64 8331.3 8339.78 8348.2 8356.72 8365.11 8373.59 8382.06 8390.59 8399.13 8407.46 8415.93 8424.41 8432.78 8441.08 8449.54 8457.95 8466.43 8474.83 8483.09 8491.4 8499.86 8508.14 8516.47 8524.88 8533.08 8541.24 8549.65 8557.89 8566.21 8574.43 8582.7 8590.84 8599.05 8607.03 8615.33 8623.52 8631.64 8639.81 8647.83 8655.95 8664.13 8672.16 8680.18 8688.24 8696.18 8704.29 8712.2 8720.12 8728.21 8736.16 8743.96 8751.81 8759.79 8767.58 8775.52 8783.49 8791.17 8798.9 8806.72 8814.51 8822.25 8829.95 8837.72 8845.33 8853.01 8860.62 8868.31 8875.84 8883.46 8890.89 8898.58 8905.97 8913.51 8921.06 8928.39 8935.83 8943.3 8950.67 8958.04 8965.26 8972.62 8979.95 8987.25 8994.43 9001.65 9008.78 9016 9023.17 9030.21 9037.35 9044.36 9051.38 9058.56 9065.42 9072.36 9079.31 9086.1 9093.06 9099.95 9106.71 9113.49 9120.22 9127.02 9133.59 9140.33 9146.97 9153.52 9160.16 9166.77 9173.23 9179.68 9186.12 9192.56 9198.97 9205.29 9211.65 9217.85 9224.23 9230.45 9236.65 9242.83 9248.9 9255.05 9261.16 9267.08 9273.15 9279.03 9285.01 9290.91 9296.71 9302.51 9308.38 9314.07 9319.84 9325.46 9331.14 9336.62 9342.23 9347.79 9353.32 9358.67 9364.12 9369.57 9374.88 9380.22 9385.4 9390.6 9395.9 9400.93 9406.04 9411.13 9416.17 9421.08 9426.04 9430.96 9435.76 9440.69 9445.38 9450.08 9454.92 9459.53 9464.15 9468.7 9473.25 9477.63 9482.06 9486.48 9490.85 9495.2 9499.41 9503.61 9507.78 9511.94 9516.09 9520.12 9524.08 9528.06 9531.94 9535.85 9539.58 9543.31 9547.09 9550.82 9554.43 9557.97 9561.57 9565.02 9568.47 9571.91 9575.16 9578.53 9581.75 9585.02 9588.19 9591.33 9594.42 9597.4 9600.3 9603.33 9606.12 9608.98 9611.69 9614.4 9617.16 9619.75 9622.39 9624.83 9627.32 9629.77 9632.13 9634.49 9636.81 9638.95 9641.19 9643.35 9645.33 9647.42 9649.4 9651.31 9653.21 9654.99 9656.76 9658.46 9660.24 9661.8 9663.37 9664.87 9666.35 9667.79 9669.05 9670.4 9671.63 9672.84 9674.02 9675.13 9676.24 9677.15 9678.16 9679.04 9679.83 9680.61 9681.36 9682.12 9682.69 9683.34 9683.79 9684.25 9684.65 9685.1 9685.31 9685.66 9685.79 9685.91 9686.08 9686.16 9686.15 9686.12 9685.95 9685.86 9685.65 9685.31 9685.05 9684.68 9684.3 9683.79 9683.21 9682.67 9682.02 9681.34 9680.63 9679.87 9678.99 9678.17 9677.23 9676.23 9675.14 9674.08 9672.89 9671.65 9670.41 9669.06 9667.76 9666.29 9664.85 9663.42 9661.77 9660.2 9658.5 9656.71 9654.96 9653.13 9651.29 9649.38 9647.43 9645.46 9643.31 9641.05 9639.02 9636.83 9634.57 9632.13 9629.77 9627.44 9624.87 9622.38 9619.72 9617.15 9614.47 9611.75 9608.94 9606.17 9603.21 9600.37 9597.42 9594.36 9591.28 9588.15 9585.01 9581.78 9578.57 9575.31 9571.88 9568.58 9565.03
7861.66 7870.43 7879 7887.68 7896.49 7905.09 7913.74 7922.44 7931.12 7939.67 7948.41 7957.12 7965.73 7974.52 7983.17 7991.96 8000.59 8009.05 8017.85 8026.56 8035.13 8043.81 8052.48 8061.2 8069.74 8078.44 8086.98 8095.73 8104.45 8113.13 8121.74 8130.32 8138.91 8147.58 8156.18 8164.7 8173.34 8181.98 8190.6 8199.22 8207.87 8216.39 8225.06 8233.68 8242.08 8250.81 8259.31 8267.81 8276.5 8285.01 8293.62 8301.98 8310.56 8319.08 8327.59 8336.01 8344.59 8353.07 8361.64 8370.02 8378.49 8387.02 8395.32 8403.72 8412.29 8420.76 8429.11 8437.45 8445.85 8454.32 8462.59 8470.99 8479.29 8487.73 8496.03 8504.26 8512.74 8520.91 8529.18 8537.46 8545.74 8553.88 8562.34 8570.43 8578.66 8586.84 8595.1 8603.25 8611.31 8619.37 8627.63 8635.82 8643.84 8652.04 8660 8668.04 8676.13 8684.24 8692.07 8699.99 8708.12 8716.09 8724.07 8732.04 8739.86 8747.78 8755.62 8763.63 8771.32 8779.08 8786.91 8794.69 8802.53 8810.23 8817.99 8825.83 8833.37 8841.01 8848.7 8856.36 8863.84 8871.55 8879.16 8886.61 8894.2 8901.62 8909.11 8916.61 8924.07 8931.45 8938.87 8946.17 8953.54 8960.95 8968.15 8975.48 8982.73 8989.82 8997.2 9004.29 9011.55 9018.55 9025.68 9032.88 9039.8 9046.87 9053.86 9060.77 9067.72 9074.58 9081.57 9088.38 9095.07 9102.05 9108.78 9115.58 9122.25 9129.02 9135.61 9142.2 9148.84 9155.39 9161.92 9168.41 9174.93 9181.29 9187.7 9194.03 9200.51 9206.69 9213.13 9219.36 9225.61 9231.8 9237.84 9243.96 9250.1 9256.14 9262.12 9268.17 9274.17 9280.05 9285.79 9291.75 9297.52 9303.38 9309.12 9314.78 9320.52 9326.2 9331.74 9337.17 9342.76 9348.32 9353.62 9359.09 9364.39 9369.77 9374.97 9380.29 9385.55 9390.73 9395.79 9400.95 9406.01 9410.96 9416.02 9420.94 9425.73 9430.65 9435.44 9440.14 9444.94 9449.58 9454.23 9458.85 9463.45 9467.91 9472.39 9476.88 9481.32 9485.54 9489.89 9494.18 9498.36 9502.46 9506.63 9510.67 9514.76 9518.76 9522.78 9526.65 9530.47 9534.21 9538.04 9541.7 9545.36 9549.06 9552.67 9556.2 9559.56 9563.08 9566.45 9569.83 9573.15 9576.34 9579.55 9582.73 9585.85 9588.92 9591.93 9594.87 9597.78 9600.7 9603.47 9606.28 9609.03 9611.65 9614.25 9616.81 9619.39 9621.75 9624.29 9626.59 9628.92 9631.24 9633.45 9635.7 9637.71 9639.79 9641.79 9643.83 9645.66 9647.61 9649.45 9651.2 9652.88 9654.63 9656.21 9657.74 9659.34 9660.68 9662.18 9663.54 9664.78 9666.03 9667.33 9668.48 9669.46 9670.58 9671.59 9672.48 9673.38 9674.17 9675.05 9675.78 9676.42 9677.1 9677.57 9678.09 9678.64 9679.09 9679.41 9679.74 9680.04 9680.24 9680.34 9680.52 9680.53 9680.51 9680.42 9680.34 9680.2 9680.09 9679.72 9679.41 9679.07 9678.68 9678.17 9677.58 9677.13 9676.41 9675.71 9675.01 9674.24 9673.34 9672.46 9671.52 9670.61 9669.49 9668.39 9667.27 9666.08 9664.83 9663.51 9662.16 9660.66 9659.23 9657.78 9656.15 9654.57 9652.98 9651.22 9649.48 9647.59 9645.71 9643.71 9641.86 9639.87 9637.69 9635.61 9633.46 9631.19 9628.94 9626.57 9624.33 9621.83 9619.39 9616.86 9614.23 9611.64 9608.98 9606.24 9603.44 9600.65 9597.74 9594.85 9591.85 9588.94 9585.86 9582.65 9579.6 9576.38 9573.13 9569.73 9566.51 9563.08 9559.62
7858.56 7867.29 7876.02 7884.66 7893.29 7901.91 7910.6 7919.37 7928 7936.71 7945.29 7954.06 7962.74 7971.29 7979.95 7988.55 7997.24 8006 8014.64 8023.38 8031.8 8040.6 8049.19 8057.79 8066.58 8075.12 8083.73 8092.38 8100.99 8109.76 8118.32 8126.97 8135.63 8144.21 8152.76 8161.39 8169.94 8178.63 8187.19 8195.8 8204.39 8212.97 8221.54 8230.05 8238.68 8247.2 8255.78 8264.28 8272.77 8281.28 8289.8 8298.36 8306.94 8315.56 8323.95 8332.39 8341.09 8349.41 8357.73 8366.38 8374.75 8383.21 8391.65 8400.19 8408.58 8416.94 8425.3 8433.72 8442.1 8450.53 8458.85 8467.17 8475.6 8483.77 8492.14 8500.52 8508.76 8517.01 8525.39 8533.6 8541.79 8550.05 8558.27 8566.55 8574.75 8582.95 8591.04 8599.24 8607.43 8615.35 8623.58 8631.83 8639.83 8647.99 8655.94 8664.02 8672.05 8679.94 8688.1 8696.07 8703.96 8711.93 8719.93 8727.71 8735.7 8743.57 8751.29 8759.23 8767.15 8774.89 8782.7 8790.56 8798.21 8805.92 8813.72 8821.47 8829.16 8836.8 8844.51 8851.98 8859.65 8867.17 8874.67 8882.26 8889.8 8897.28 8904.76 8912.18 8919.63 8927.05 8934.44 8941.69 8948.99 8956.49 8963.65 8971.06 8978.24 8985.34 8992.57 8999.73 9006.95 9013.99 9021.12 9028.06 9035.19 9042.17 9049.29 9056.16 9063.02 9069.94 9076.88 9083.66 9090.53 9097.28 9104.09 9110.72 9117.54 9124.18 9130.83 9137.54 9143.99 9150.57 9157.12 9163.67 9170.05 9176.48 9182.88 9189.25 9195.52 9201.88 9208.16 9214.4 9220.69 9226.83 9233.06 9239.01 9245.18 9251.14 9257.28 9263.24 9269.03 9275.09 9280.94 9286.69 9292.58 9298.24 9303.92 9309.68 9315.43 9320.96 9326.54 9332.15 9337.64 9343.11 9348.58 9353.83 9359.36 9364.62 9369.88 9375.12 9380.33 9385.41 9390.65 9395.73 9400.72 9405.81 9410.79 9415.64 9420.53 9425.44 9430.18 9434.98 9439.72 9444.31 9449 9453.58 9458.25 9462.68 9467.12 9471.52 9475.95 9480.26 9484.54 9488.75 9492.97 9497.17 9501.2 9505.36 9509.42 9513.35 9517.23 9521.2 9525.09 9528.84 9532.58 9536.34 9539.95 9543.64 9547.18 9550.66 9554.2 9557.63 9561.03 9564.4 9567.69 9570.91 9574.13 9577.27 9580.34 9583.3 9586.39 9589.41 9592.25 9595.13 9597.89 9600.66 9603.45 9606.09 9608.73 9611.32 9613.76 9616.27 9618.63 9621.1 9623.31 9625.69 9627.86 9630.12 9632.24 9634.28 9636.26 9638.27 9640.1 9642.04 9643.78 9645.48 9647.34 9648.97 9650.59 9652.16 9653.64 9655.12 9656.47 9657.89 9659.14 9660.42 9661.59 9662.77 9663.88 9664.9 9665.92 9666.92 9667.7 9668.6 9669.36 9670.15 9670.82 9671.39 9671.95 9672.5 9672.98 9673.41 9673.78 9674.06 9674.34 9674.59 9674.73 9674.81 9674.85 9674.84 9674.77 9674.69 9674.55 9674.37 9674.16 9673.77 9673.38 9672.95 9672.58 9671.95 9671.45 9670.73 9670.11 9669.33 9668.58 9667.66 9666.96 9665.95 9664.87 9663.84 9662.76 9661.58 9660.47 9659.18 9657.87 9656.58 9655.15 9653.72 9652.12 9650.61 9648.89 9647.33 9645.56 9643.78 9642.09 9640.17 9638.22 9636.28 9634.25 9632.16 9630.03 9627.85 9625.63 9623.37 9621.14 9618.67 9616.32 9613.83 9611.27 9608.69 9606.05 9603.47 9600.75 9597.9 9595.12 9592.29 9589.35 9586.43 9583.33 9580.31 9577.28 9574.09 9570.95 9567.66 9564.36 9560.99 9557.6 9554.26
7855.52 7864.34 7872.91 7881.67 7890.17 7898.92 7907.62 7916.2 7924.81 7933.64 7942.15 7950.78 7959.34 7968.09 7976.8 7985.4 7994.09 8002.69 8011.39 8020.01 8028.66 8037.37 8045.89 8054.45 8063.26 8071.72 8080.45 8089.08 8097.73 8106.35 8114.97 8123.46 8132.19 8140.8 8149.47 8157.96 8166.61 8175.16 8183.76 8192.42 8200.98 8209.54 8218.03 8226.57 8235.18 8243.77 8252.28 8260.68 8269.29 8277.82 8286.47 8294.81 8303.33 8311.86 8320.25 8328.94 8337.19 8345.75 8354.2 8362.69 8371.12 8379.52 8388.01 8396.34 8404.74 8413.16 8421.51 8429.94 8438.33 8446.66 8455.02 8463.24 8471.76 8479.98 8488.31 8496.62 8504.92 8513.25 8521.31 8529.72 8537.94 8546.19 8554.36 8562.63 8570.79 8578.99 8587.09 8595.33 8603.36 8611.51 8619.6 8627.62 8635.81 8643.78 8651.88 8659.84 8667.99 8675.84 8683.98 8691.89 8699.85 8707.83 8715.67 8723.6 8731.52 8739.35 8747.22 8755.05 8762.82 8770.59 8778.39 8786.19 8793.96 8801.7 8809.42 8817.04 8824.77 8832.35 8840.04 8847.59 8855.16 8862.74 8870.35 8877.81 8885.38 8892.81 8900.33 8907.65 8915.09 8922.49 8929.93 8937.26 8944.52 8951.79 8959.15 8966.43 8973.63 8980.86 8988.01 8995.16 9002.11 9009.36 9016.42 9023.54 9030.56 9037.53 9044.5 9051.52 9058.34 9065.26 9072.12 9078.86 9085.78 9092.67 9099.26 9105.98 9112.76 9119.37 9126.04 9132.69 9139.17 9145.82 9152.31 9158.71 9165.13 9171.61 9178.08 9184.42 9190.76 9196.93 9203.31 9209.52 9215.68 9221.79 9227.96 9234.16 9240.21 9246.21 9252.14 9258.22 9264.11 9270.03 9275.8 9281.66 9287.46 9293.19 9298.92 9304.59 9310.37 9315.93 9321.41 9326.98 9332.52 9338 9343.44 9348.75 9354.15 9359.41 9364.75 9369.85 9375.2 9380.34 9385.43 9390.49 9395.5 9400.45 9405.52 9410.46 9415.32 9420.1 9424.87 9429.58 9434.35 9438.98 9443.72 9448.29 9452.8 9457.28 9461.78 9466.14 9470.52 9474.88 9479.27 9483.33 9487.6 9491.76 9495.88 9499.88 9503.92 9507.88 9511.84 9515.78 9519.47 9523.38 9527.15 9530.81 9534.57 9538.09 9541.73 9545.22 9548.64 9552.18 9555.51 9558.85 9562.21 9565.41 9568.6 9571.65 9574.78 9577.88 9580.85 9583.82 9586.75 9589.55 9592.42 9595.17 9597.83 9600.53 9603.12 9605.73 9608.21 9610.69 9613.06 9615.41 9617.79 9620.04 9622.27 9624.36 9626.52 9628.55 9630.59 9632.47 9634.46 9636.39 9638.13 9639.89 9641.63 9643.26 9644.97 9646.48 9648.04 9649.43 9650.83 9652.17 9653.49 9654.73 9655.9 9657.12 9658.2 9659.15 9660.19 9661.16 9662.1 9662.91 9663.68 9664.44 9665.07 9665.66 9666.24 9666.86 9667.27 9667.66 9668.05 9668.37 9668.62 9668.76 9669.01 9669.06 9669.12 9669.12 9669.1 9669.09 9668.79 9668.66 9668.3 9668.09 9667.62 9667.27 9666.83 9666.24 9665.71 9665.09 9664.34 9663.68 9662.83 9662.08 9661.12 9660.18 9659.3 9658.13 9657.07 9655.94 9654.78 9653.54 9652.21 9650.85 9649.45 9648.03 9646.46 9644.92 9643.37 9641.63 9639.96 9638.18 9636.36 9634.54 9632.58 9630.68 9628.58 9626.51 9624.36 9622.18 9620 9617.76 9615.42 9613.04 9610.6 9608.21 9605.62 9603.07 9600.55 9597.81 9595.08 9592.39 9589.6 9586.78 9583.78 9580.88 9577.79 9574.83 9571.66 9568.52 9565.4 9562.13 9558.8 9555.45 9552.11 9548.66
7852.6 7861.11 7869.78 7878.5 7887.06 7895.74 7904.48 7912.93 7921.59 7930.18 7939.09 7947.66 7956.31 7964.9 7973.5 7982.11 7990.76 7999.4 8008.16 8016.7 8025.38 8033.92 8042.75 8051.27 8059.87 8068.58 8077.2 8085.7 8094.36 8102.96 8111.59 8120.26 8128.78 8137.3 8145.95 8154.66 8163.09 8171.57 8180.33 8188.81 8197.45 8205.88 8214.44 8223.15 8231.62 8240.04 8248.69 8257.23 8265.69 8274.27 8282.68 8291.29 8299.67 8308.2 8316.6 8325.19 8333.73 8342.09 8350.5 8358.89 8367.43 8375.77 8384.26 8392.57 8400.9 8409.41 8417.71 8426.13 8434.57 8442.94 8451.22 8459.63 8467.87 8476.15 8484.44 8492.71 8501.05 8509.29 8517.42 8525.77 8533.98 8542.25 8550.33 8558.49 8566.78 8574.94 8582.97 8591.18 8599.27 8607.38 8615.52 8623.73 8631.62 8639.71 8647.75 8655.79 8663.79 8671.74 8679.77 8687.73 8695.57 8703.52 8711.51 8719.29 8727.35 8735.1 8743.04 8750.82 8758.64 8766.42 8774.16 8781.95 8789.66 8797.4 8805 8812.75 8820.42 8828.05 8835.59 8843.15 8850.76 8858.41 8865.78 8873.43 8880.82 8888.35 8895.85 8903.3 8910.61 8917.99 8925.32 8932.62 8940.12 8947.33 8954.59 8961.77 8968.92 8976.28 8983.38 8990.53 8997.68 9004.71 9011.81 9018.81 9025.78 9032.83 9039.71 9046.73 9053.63 9060.46 9067.39 9074.24 9081 9087.81 9094.5 9101.19 9107.89 9114.62 9121.25 9127.82 9134.28 9140.84 9147.44 9153.87 9160.4 9166.74 9173.15 9179.51 9185.69 9192.01 9198.38 9204.53 9210.72 9216.79 9223.02 9228.97 9235.1 9241.2 9247.21 9253.13 9259.02 9264.97 9270.87 9276.6 9282.41 9288.16 9293.85 9299.56 9305.11 9310.73 9316.3 9321.89 9327.37 9332.77 9338.17 9343.68 9348.93 9354.27 9359.53 9364.68 9369.87 9375.07 9380.18 9385.28 9390.12 9395.3 9400.2 9405.09 9409.9 9414.78 9419.62 9424.37 9429.13 9433.68 9438.34 9442.79 9447.48 9452.01 9456.42 9460.79 9465.09 9469.47 9473.64 9477.86 9482.21 9486.28 9490.35 9494.45 9498.57 9502.43 9506.41 9510.33 9514.16 9517.9 9521.64 9525.38 9529.02 9532.56 9536.18 9539.64 9543.11 9546.56 9550.04 9553.29 9556.59 9559.85 9562.98 9566.09 9569.22 9572.25 9575.3 9578.2 9581.06 9583.95 9586.79 9589.55 9592.26 9594.93 9597.49 9600.02 9602.53 9605.04 9607.42 9609.81 9612.16 9614.42 9616.59 9618.72 9620.81 9622.91 9624.91 9626.88 9628.73 9630.64 9632.47 9634.23 9635.88 9637.58 9639.21 9640.78 9642.28 9643.78 9645.14 9646.59 9647.77 9649 9650.29 9651.39 9652.43 9653.52 9654.44 9655.37 9656.31 9657.21 9657.92 9658.64 9659.37 9659.96 9660.59 9661.02 9661.57 9661.94 9662.3 9662.64 9662.86 9663.11 9663.24 9663.38 9663.37 9663.4 9663.33 9663.23 9663.05 9662.81 9662.65 9662.28 9661.92 9661.52 9661.09 9660.59 9659.9 9659.39 9658.62 9657.95 9657.17 9656.36 9655.41 9654.49 9653.48 9652.39 9651.38 9650.21 9648.92 9647.76 9646.45 9645.17 9643.72 9642.24 9640.76 9639.24 9637.58 9635.91 9634.29 9632.44 9630.63 9628.74 9626.86 9624.94 9622.92 9620.84 9618.8 9616.55 9614.37 9612.11 9609.77 9607.44 9605.02 9602.51 9600.09 9597.57 9594.86 9592.2 9589.55 9586.84 9584 9581.09 9578.31 9575.26 9572.2 9569.25 9566.13 9563.05 9559.85 9556.57 9553.31 9549.88 9546.6 9543.07
7849.3 7858.09 7866.71 7875.24 7883.9 7892.52 7901.18 7909.87 7918.5 7927.12 7935.85 7944.29 7953.13 7961.66 7970.22 7978.97 7987.57 7996.12 8004.86 8013.32 8022.16 8030.63 8039.28 8047.86 8056.63 8065.17 8073.77 8082.31 8090.89 8099.56 8108.15 8116.68 8125.25 8133.85 8142.45 8151.12 8159.49 8168.2 8176.72 8185.32 8193.89 8202.54 8210.87 8219.55 8227.9 8236.53 8245.03 8253.54 8262.08 8270.69 8279.04 8287.57 8295.99 8304.34 8312.86 8321.47 8329.87 8338.33 8346.64 8355.07 8363.56 8372.06 8380.34 8388.89 8397.13 8405.49 8413.96 8422.39 8430.62 8438.92 8447.3 8455.62 8463.92 8472.27 8480.57 8488.82 8497.03 8505.32 8513.45 8521.73 8529.92 8538.2 8546.39 8554.49 8562.77 8570.9 8579.02 8587.2 8595.2 8603.28 8611.26 8619.47 8627.48 8635.63 8643.56 8651.6 8659.75 8667.67 8675.54 8683.42 8691.58 8699.38 8707.23 8715.2 8722.99 8730.9 8738.72 8746.46 8754.27 8762.04 8769.79 8777.55 8785.18 8792.9 8800.71 8808.26 8816.02 8823.53 8831.19 8838.8 8846.33 8853.84 8861.44 8868.83 8876.48 8883.87 8891.31 8898.65 8906 8913.46 8920.86 8928.21 8935.5 8942.68 8949.91 8957.2 8964.46 8971.54 8978.81 8985.85 8993.02 9000.12 9007.05 9014.15 9021.1 9028.16 9035.12 9041.98 9048.95 9055.68 9062.62 9069.41 9076.18 9082.92 9089.76 9096.36 9103.06 9109.74 9116.27 9122.87 9129.44 9135.96 9142.52 9148.97 9155.45 9161.8 9168.1 9174.38 9180.89 9187.15 9193.39 9199.54 9205.75 9211.8 9218.03 9224.05 9230.13 9236.25 9242.14 9248.16 9253.94 9259.86 9265.68 9271.56 9277.25 9282.97 9288.66 9294.32 9299.99 9305.52 9311.19 9316.63 9322.18 9327.5 9333.04 9338.34 9343.68 9348.89 9354.18 9359.43 9364.47 9369.77 9374.86 9379.9 9384.95 9389.87 9394.82 9399.79 9404.59 9409.38 9414.24 9418.91 9423.63 9428.34 9432.87 9437.47 9441.96 9446.5 9450.91 9455.32 9459.73 9464.08 9468.29 9472.47 9476.65 9480.85 9484.91 9488.94 9493 9496.95 9500.88 9504.64 9508.57 9512.36 9516.15 9519.78 9523.49 9527.06 9530.65 9534.16 9537.57 9540.97 9544.39 9547.6 9550.95 9554.21 9557.4 9560.48 9563.55 9566.57 9569.68 9572.54 9575.49 9578.33 9581.09 9583.75 9586.6 9589.19 9591.81 9594.4 9596.89 9599.29 9601.74 9604.14 9606.51 9608.71 9610.9 9613.03 9615.12 9617.28 9619.22 9621.17 9622.97 9624.93 9626.78 9628.5 9630.16 9631.85 9633.41 9635.06 9636.53 9637.95 9639.37 9640.72 9641.97 9643.25 9644.46 9645.57 9646.67 9647.61 9648.67 9649.67 9650.51 9651.38 9652.15 9652.85 9653.49 9654.16 9654.76 9655.3 9655.77 9656.16 9656.51 9656.82 9657.11 9657.25 9657.43 9657.54 9657.64 9657.61 9657.6 9657.39 9657.33 9657.03 9656.81 9656.46 9656.2 9655.74 9655.2 9654.7 9654.18 9653.58 9652.9 9652.18 9651.36 9650.56 9649.61 9648.65 9647.69 9646.7 9645.51 9644.42 9643.3 9642 9640.66 9639.32 9638.03 9636.51 9635.01 9633.47 9631.82 9630.11 9628.47 9626.69 9624.9 9623.09 9621.11 9619.18 9617.19 9615.16 9613.07 9610.86 9608.63 9606.4 9604.08 9601.66 9599.27 9596.84 9594.35 9591.8 9589.14 9586.6 9583.82 9581.08 9578.41 9575.47 9572.49 9569.65 9566.64 9563.6 9560.52 9557.36 9554.19 9550.97 9547.63 9544.27 9541.01 9537.55
7846.23 7854.83 7863.47 7872.09 7880.84 7889.42 7897.9 7906.63 7915.27 7923.93 7932.56 7941.05 7949.74 7958.35 7967.08 7975.61 7984.37 7992.83 8001.42 8010.16 8018.74 8027.24 8035.98 8044.58 8053.1 8061.65 8070.42 8078.95 8087.5 8096.13 8104.58 8113.3 8121.76 8130.34 8139.05 8147.41 8156.08 8164.64 8173.27 8181.76 8190.19 8198.88 8207.46 8215.88 8224.41 8232.84 8241.4 8249.97 8258.46 8266.89 8275.47 8283.89 8292.42 8300.86 8309.24 8317.69 8326.13 8334.58 8342.87 8351.43 8359.78 8368.26 8376.59 8385.05 8393.29 8401.7 8410 8418.53 8426.72 8435.03 8443.52 8451.65 8460.01 8468.26 8476.53 8484.78 8492.98 8501.34 8509.47 8517.65 8525.94 8534.11 8542.33 8550.43 8558.61 8566.85 8574.97 8583.02 8591.13 8599.2 8607.3 8615.3 8623.35 8631.37 8639.49 8647.38 8655.37 8663.3 8671.29 8679.19 8687.11 8695.12 8702.94 8710.8 8718.66 8726.42 8734.32 8742.18 8749.94 8757.72 8765.42 8773.18 8780.89 8788.44 8796.17 8803.96 8811.54 8819.12 8826.69 8834.31 8842.06 8849.29 8856.88 8864.51 8871.84 8879.32 8886.72 8894.22 8901.56 8908.87 8916.08 8923.52 8930.77 8938.07 8945.42 8952.61 8959.67 8966.81 8974.12 8981.15 8988.21 8995.25 9002.43 9009.35 9016.38 9023.38 9030.2 9037.21 9044.11 9050.94 9057.84 9064.68 9071.38 9078.1 9084.82 9091.57 9098.26 9104.71 9111.42 9118.06 9124.48 9131.11 9137.55 9143.9 9150.4 9156.8 9163.15 9169.46 9175.73 9182.07 9188.34 9194.48 9200.73 9206.81 9212.87 9219.06 9224.94 9231.05 9237.04 9242.96 9248.81 9254.73 9260.56 9266.25 9272.08 9277.79 9283.47 9289.13 9294.79 9300.32 9305.94 9311.36 9316.88 9322.3 9327.87 9332.98 9338.33 9343.74 9348.87 9354.08 9359.24 9364.42 9369.48 9374.6 9379.63 9384.55 9389.65 9394.35 9399.2 9404 9408.83 9413.55 9418.27 9422.81 9427.41 9432.13 9436.54 9441.04 9445.49 9449.89 9454.16 9458.56 9462.8 9466.99 9471.17 9475.44 9479.34 9483.44 9487.47 9491.39 9495.36 9499.16 9502.94 9506.82 9510.47 9514.24 9517.8 9521.43 9525.04 9528.43 9531.93 9535.38 9538.71 9542.03 9545.27 9548.6 9551.7 9554.77 9557.89 9560.92 9563.96 9566.93 9569.82 9572.55 9575.35 9578.17 9580.86 9583.49 9586.11 9588.64 9591.25 9593.6 9596.07 9598.32 9600.61 9602.87 9605.11 9607.3 9609.39 9611.47 9613.51 9615.4 9617.3 9619.12 9621.01 9622.75 9624.39 9626.07 9627.68 9629.21 9630.71 9632.16 9633.53 9634.88 9636.29 9637.45 9638.69 9639.76 9640.82 9641.83 9642.93 9643.83 9644.72 9645.56 9646.35 9647.01 9647.73 9648.39 9648.89 9649.37 9649.91 9650.29 9650.66 9651.02 9651.28 9651.46 9651.6 9651.71 9651.72 9651.75 9651.69 9651.58 9651.4 9651.22 9650.92 9650.63 9650.31 9649.84 9649.39 9648.88 9648.29 9647.64 9647.02 9646.36 9645.6 9644.7 9643.81 9642.86 9641.95 9640.87 9639.78 9638.64 9637.47 9636.19 9634.92 9633.59 9632.18 9630.73 9629.24 9627.65 9625.96 9624.3 9622.73 9621.01 9619.23 9617.31 9615.52 9613.46 9611.43 9609.43 9607.26 9605.17 9602.94 9600.6 9598.36 9596.05 9593.59 9591.18 9588.62 9586.14 9583.52 9580.88 9578.13 9575.49 9572.67 9569.73 9566.87 9564.11 9560.92 9557.94 9554.94 9551.7 9548.52 9545.38 9541.95 9538.76 9535.33 9531.9
7843.12 7851.7 7860.34 7868.93 7877.56 7886.14 7894.79 7903.33 7912.03 7920.53 7929.26 7937.71 7946.44 7955.1 7963.66 7972.26 7980.99 7989.55 7998.2 8006.73 8015.29 8024 8032.5 8041.19 8049.75 8058.11 8066.81 8075.46 8083.92 8092.65 8101.21 8109.72 8118.28 8126.87 8135.43 8143.91 8152.54 8161.05 8169.67 8178.07 8186.71 8195.22 8203.65 8212.36 8220.73 8229.31 8237.77 8246.28 8254.8 8263.17 8271.68 8280.03 8288.58 8296.97 8305.45 8313.96 8322.35 8330.84 8339.27 8347.56 8355.99 8364.38 8372.85 8381.11 8389.46 8397.92 8406.1 8414.53 8422.93 8431.12 8439.47 8447.83 8456.09 8464.31 8472.53 8480.87 8489.1 8497.42 8505.58 8513.67 8521.82 8530.16 8538.26 8546.38 8554.41 8562.66 8570.88 8579.03 8586.86 8595.11 8603.04 8611.08 8619.15 8627.16 8635.24 8643.18 8651.14 8659.16 8667.02 8674.91 8682.88 8690.78 8698.59 8706.59 8714.47 8722.16 8729.97 8737.77 8745.51 8753.28 8760.94 8768.79 8776.45 8784.21 8791.76 8799.38 8807.03 8814.61 8822.23 8829.78 8837.29 8844.8 8852.35 8859.81 8867.28 8874.65 8882.22 8889.56 8896.79 8904.26 8911.54 8918.82 8926.08 8933.46 8940.66 8947.89 8955.1 8962.27 8969.33 8976.4 8983.43 8990.56 8997.5 9004.66 9011.56 9018.54 9025.38 9032.39 9039.2 9046.18 9052.81 9059.71 9066.55 9073.23 9079.87 9086.55 9093.19 9099.85 9106.46 9113.02 9119.52 9126.09 9132.54 9139.01 9145.39 9151.76 9158.16 9164.41 9170.63 9176.91 9183.19 9189.4 9195.5 9201.66 9207.82 9213.87 9219.9 9225.8 9231.76 9237.78 9243.61 9249.51 9255.35 9261.13 9266.84 9272.55 9278.26 9283.93 9289.57 9295.16 9300.61 9306.19 9311.63 9317.06 9322.45 9327.72 9333.1 9338.35 9343.58 9348.84 9353.91 9359.1 9364.11 9369.2 9374.16 9379.1 9384.06 9388.98 9393.82 9398.56 9403.34 9408.06 9412.69 9417.36 9421.94 9426.52 9431.07 9435.58 9439.94 9444.34 9448.75 9452.95 9457.2 9461.41 9465.61 9469.78 9473.88 9477.86 9481.85 9485.82 9489.61 9493.62 9497.44 9501.14 9504.92 9508.54 9512.14 9515.72 9519.31 9522.85 9526.29 9529.68 9533.1 9536.36 9539.58 9542.84 9546.07 9549.09 9552.27 9555.22 9558.17 9561.12 9564.09 9566.88 9569.71 9572.4 9575.08 9577.72 9580.34 9582.87 9585.43 9587.78 9590.25 9592.56 9594.97 9597.11 9599.3 9601.54 9603.59 9605.63 9607.63 9609.57 9611.51 9613.38 9615.15 9616.88 9618.57 9620.23 9621.78 9623.39 9624.91 9626.31 9627.71 9629.1 9630.42 9631.54 9632.79 9633.89 9635.02 9636.09 9637.08 9637.89 9638.87 9639.68 9640.4 9641.2 9641.89 9642.4 9643.04 9643.56 9644.05 9644.44 9644.82 9645.11 9645.36 9645.63 9645.62 9645.82 9645.92 9645.9 9645.81 9645.78 9645.61 9645.34 9645.11 9644.78 9644.44 9644.13 9643.57 9643.01 9642.48 9641.87 9641.18 9640.48 9639.71 9638.86 9638.03 9637.01 9636.05 9634.92 9633.95 9632.82 9631.53 9630.28 9629.08 9627.7 9626.28 9624.88 9623.39 9621.76 9620.33 9618.56 9616.83 9615.15 9613.29 9611.55 9609.64 9607.65 9605.62 9603.55 9601.53 9599.34 9597.11 9594.81 9592.6 9590.18 9587.78 9585.39 9582.93 9580.35 9577.76 9575.13 9572.45 9569.69 9566.9 9564.13 9561.17 9558.09 9555.19 9552.26 9549.12 9546 9542.94 9539.64 9536.27 9533.07 9529.72 9526.29
7839.93 7848.39 7857.07 7865.67 7874.32 7882.81 7891.42 7900.22 7908.75 7917.35 7925.95 7934.43 7943.2 7951.81 7960.4 7968.88 7977.43 7986.2 7994.74 8003.44 8011.83 8020.57 8029.18 8037.66 8046.23 8054.85 8063.44 8071.94 8080.53 8089.1 8097.66 8106.25 8114.77 8123.32 8131.99 8140.47 8148.86 8157.45 8166.05 8174.54 8183.02 8191.6 8200.09 8208.57 8217.13 8225.62 8234.13 8242.56 8251.06 8259.45 8267.94 8276.5 8284.87 8293.3 8301.76 8310.16 8318.59 8327.01 8335.42 8343.8 8352.16 8360.6 8368.87 8377.17 8385.63 8394 8402.27 8410.43 8418.88 8427.22 8435.55 8443.89 8451.94 8460.37 8468.59 8476.79 8484.93 8493.31 8501.49 8509.7 8517.84 8525.96 8534.17 8542.24 8550.56 8558.51 8566.59 8574.72 8582.84 8590.82 8598.93 8607.05 8615.02 8622.95 8630.98 8638.85 8646.94 8654.9 8662.76 8670.73 8678.49 8686.5 8694.32 8702.18 8709.97 8717.8 8725.62 8733.46 8741.16 8748.86 8756.6 8764.28 8771.99 8779.66 8787.37 8795.01 8802.49 8810.22 8817.67 8825.34 8832.69 8840.29 8847.81 8855.22 8862.72 8870.11 8877.5 8884.99 8892.3 8899.62 8906.9 8914.21 8921.48 8928.65 8935.95 8943.07 8950.35 8957.36 8964.56 8971.73 8978.84 8985.8 8992.79 8999.72 9006.7 9013.72 9020.73 9027.45 9034.37 9041.18 9047.9 9054.81 9061.55 9068.19 9074.99 9081.69 9088.22 9094.92 9101.41 9108.03 9114.59 9121.08 9127.51 9133.92 9140.32 9146.67 9153.03 9159.53 9165.52 9171.93 9178.16 9184.3 9190.48 9196.48 9202.57 9208.66 9214.79 9220.77 9226.73 9232.57 9238.53 9244.28 9250.1 9255.92 9261.67 9267.31 9273.04 9278.61 9284.24 9289.81 9295.29 9300.77 9306.29 9311.65 9316.96 9322.38 9327.73 9333.02 9338.22 9343.39 9348.57 9353.64 9358.78 9363.59 9368.64 9373.77 9378.69 9383.53 9388.37 9393.2 9397.92 9402.58 9407.24 9411.92 9416.49 9421.13 9425.54 9430.02 9434.4 9438.86 9443.1 9447.38 9451.61 9455.91 9460.05 9464.17 9468.26 9472.3 9476.24 9480.13 9484.08 9487.93 9491.76 9495.6 9499.17 9502.9 9506.46 9510.1 9513.61 9517.15 9520.63 9523.96 9527.36 9530.7 9533.84 9537.08 9540.3 9543.41 9546.38 9549.53 9552.54 9555.35 9558.29 9561.09 9563.81 9566.58 9569.36 9571.87 9574.59 9577.11 9579.63 9582.03 9584.41 9586.73 9588.99 9591.3 9593.54 9595.66 9597.73 9599.76 9601.82 9603.74 9605.59 9607.43 9609.32 9611.04 9612.7 9614.34 9615.94 9617.49 9619.02 9620.48 9621.91 9623.13 9624.53 9625.61 9626.96 9628.05 9629.15 9630.1 9631.1 9632.13 9632.95 9633.79 9634.51 9635.26 9635.87 9636.53 9637.12 9637.6 9638.13 9638.58 9638.88 9639.17 9639.4 9639.62 9639.81 9639.94 9639.92 9640.05 9639.89 9639.78 9639.7 9639.39 9639.19 9638.89 9638.56 9638.06 9637.6 9637.17 9636.57 9635.91 9635.33 9634.57 9633.74 9632.95 9632.11 9631.13 9630.13 9629.03 9628.06 9626.87 9625.7 9624.47 9623.16 9621.84 9620.43 9619.05 9617.5 9615.88 9614.38 9612.75 9611.05 9609.29 9607.48 9605.57 9603.74 9601.77 9599.82 9597.8 9595.68 9593.53 9591.34 9589.05 9586.74 9584.42 9582.08 9579.56 9577.1 9574.53 9571.9 9569.33 9566.56 9563.88 9561.12 9558.29 9555.33 9552.54 9549.49 9546.46 9543.43 9540.27 9537.06 9533.88 9530.66 9527.34 9524.09 9520.59
7836.94 7845.28 7853.89 7862.42 7871.01 7879.73 7888.22 7896.9 7905.38 7914.07 7922.77 7931.33 7939.95 7948.34 7956.98 7965.62 7974.26 7982.7 7991.41 8000.01 8008.59 8017.08 8025.7 8034.24 8042.7 8051.39 8059.82 8068.41 8076.99 8085.69 8094.21 8102.63 8111.21 8119.83 8128.34 8136.75 8145.39 8153.9 8162.3 8170.85 8179.41 8187.95 8196.39 8204.94 8213.45 8221.91 8230.36 8238.83 8247.33 8255.66 8264.15 8272.71 8281.08 8289.49 8297.93 8306.34 8314.67 8323.23 8331.39 8339.94 8348.35 8356.6 8365.01 8373.33 8381.8 8390.05 8398.21 8406.65 8414.89 8423.25 8431.6 8439.7 8447.96 8456.21 8464.43 8472.75 8481.03 8489.08 8497.25 8505.38 8513.71 8521.8 8530 8538.17 8546.2 8554.5 8562.57 8570.56 8578.61 8586.62 8594.63 8602.63 8610.69 8618.57 8626.69 8634.63 8642.54 8650.53 8658.49 8666.22 8674.22 8682.08 8689.92 8697.71 8705.65 8713.32 8721.26 8728.9 8736.59 8744.32 8752.17 8759.84 8767.5 8775.3 8782.78 8790.45 8798.11 8805.59 8813.06 8820.59 8828.2 8835.67 8843.15 8850.59 8857.98 8865.49 8872.83 8880.31 8887.62 8894.85 8902.19 8909.4 8916.68 8923.87 8931.19 8938.35 8945.45 8952.59 8959.72 8966.79 8973.94 8980.98 8987.9 8994.89 9001.91 9008.79 9015.66 9022.62 9029.41 9036.32 9043.16 9049.86 9056.63 9063.38 9070.05 9076.64 9083.33 9089.92 9096.5 9102.92 9109.55 9116.01 9122.46 9128.84 9135.22 9141.61 9148 9154.3 9160.56 9166.81 9172.91 9179.09 9185.29 9191.36 9197.48 9203.57 9209.46 9215.47 9221.47 9227.33 9233.15 9239.03 9244.87 9250.67 9256.36 9262.02 9267.73 9273.3 9278.91 9284.39 9290.05 9295.58 9300.83 9306.3 9311.66 9316.97 9322.3 9327.55 9332.77 9337.98 9343.09 9348.2 9353.33 9358.26 9363.37 9368.18 9373.1 9378.02 9382.78 9387.63 9392.46 9397.1 9401.77 9406.36 9410.92 9415.41 9420.04 9424.48 9428.78 9433.22 9437.48 9441.79 9446.07 9450.21 9454.38 9458.54 9462.51 9466.59 9470.64 9474.52 9478.39 9482.27 9486.08 9489.79 9493.44 9497.12 9500.82 9504.39 9507.96 9511.43 9514.89 9518.27 9521.56 9524.84 9528.21 9531.39 9534.51 9537.64 9540.73 9543.75 9546.65 9549.58 9552.42 9555.35 9558.08 9560.78 9563.49 9566.09 9568.82 9571.23 9573.71 9576.21 9578.54 9580.91 9583.16 9585.42 9587.63 9589.83 9591.86 9593.9 9595.93 9597.83 9599.79 9601.52 9603.37 9605.14 9606.9 9608.45 9610.04 9611.58 9613.06 9614.55 9615.86 9617.21 9618.53 9619.8 9620.97 9622.09 9623.23 9624.24 9625.17 9626.07 9626.95 9627.85 9628.62 9629.32 9629.95 9630.59 9631.18 9631.65 9632.21 9632.55 9632.93 9633.21 9633.51 9633.69 9633.86 9633.97 9634.01 9633.97 9633.94 9633.85 9633.69 9633.58 9633.28 9632.95 9632.55 9632.19 9631.71 9631.25 9630.54 9630.06 9629.28 9628.59 9627.81 9626.98 9626.16 9625.22 9624.26 9623.13 9622.19 9620.98 9619.71 9618.48 9617.21 9615.88 9614.5 9613.08 9611.58 9610.08 9608.49 9606.78 9605.13 9603.44 9601.63 9599.73 9597.87 9595.9 9593.9 9591.91 9589.8 9587.68 9585.38 9583.18 9580.82 9578.53 9576.18 9573.72 9571.26 9568.7 9566.11 9563.52 9560.8 9558.08 9555.35 9552.39 9549.54 9546.61 9543.64 9540.75 9537.58 9534.48 9531.34 9528.16 9524.94 9521.54 9518.33 9514.81
7833.53 7842.19 7850.63 7859.14 7867.89 7876.52 7885.04 7893.58 7902.18 7910.79 7919.28 7927.86 7936.53 7945.01 7953.68 7962.13 7970.76 7979.45 7987.92 7996.44 8005.09 8013.67 8022.23 8030.81 8039.2 8047.86 8056.37 8064.94 8073.58 8081.99 8090.6 8099.08 8107.66 8116.21 8124.74 8133.24 8141.63 8150.18 8158.77 8167.29 8175.87 8184.23 8192.65 8201.09 8209.84 8218.23 8226.68 8235.01 8243.48 8252 8260.49 8268.82 8277.26 8285.64 8294.11 8302.53 8310.77 8319.25 8327.63 8335.91 8344.32 8352.67 8361.03 8369.45 8377.73 8386.06 8394.35 8402.67 8410.88 8419.27 8427.51 8435.71 8443.99 8452.15 8460.4 8468.59 8476.87 8485.08 8493.16 8501.43 8509.6 8517.75 8525.83 8533.98 8542.06 8550.11 8558.23 8566.39 8574.32 8582.34 8590.46 8598.36 8606.42 8614.41 8622.29 8630.38 8638.18 8646.1 8654.04 8662.06 8669.79 8677.71 8685.53 8693.51 8701.16 8708.95 8716.72 8724.54 8732.21 8739.95 8747.64 8755.28 8762.92 8770.7 8778.29 8785.76 8793.33 8801.09 8808.61 8816.06 8823.59 8831.09 8838.46 8846.05 8853.46 8860.86 8868.21 8875.51 8882.93 8890.2 8897.42 8904.74 8912 8919.26 8926.52 8933.57 8940.67 8947.84 8954.98 8961.88 8969.03 8976.09 8983.07 8990.05 8996.95 9003.77 9010.91 9017.7 9024.61 9031.27 9038.08 9044.86 9051.69 9058.22 9065.06 9071.62 9078.29 9084.84 9091.39 9097.95 9104.55 9110.93 9117.31 9123.71 9130.2 9136.51 9142.84 9149.18 9155.44 9161.52 9167.85 9173.93 9180.13 9186.23 9192.27 9198.27 9204.35 9210.26 9216.19 9222.07 9227.83 9233.7 9239.49 9245.33 9251.03 9256.69 9262.38 9267.96 9273.59 9279.08 9284.63 9290.07 9295.6 9300.76 9306.34 9311.58 9316.95 9322.15 9327.35 9332.47 9337.62 9342.69 9347.83 9352.88 9357.74 9362.75 9367.6 9372.48 9377.32 9382.07 9386.8 9391.53 9396.15 9400.75 9405.34 9409.81 9414.4 9418.81 9423.23 9427.59 9431.92 9436.2 9440.4 9444.56 9448.68 9452.83 9456.89 9460.92 9464.9 9468.88 9472.75 9476.56 9480.36 9484.08 9487.77 9491.45 9495.07 9498.66 9502.17 9505.62 9509.05 9512.52 9515.88 9518.98 9522.28 9525.5 9528.74 9531.9 9534.89 9537.89 9540.9 9543.85 9546.64 9549.38 9552.24 9554.96 9557.52 9560.19 9562.88 9565.29 9567.87 9570.25 9572.69 9575.07 9577.33 9579.54 9581.69 9583.88 9586 9587.98 9589.92 9591.86 9593.79 9595.59 9597.42 9599.17 9600.92 9602.51 9604.11 9605.64 9607.11 9608.5 9609.96 9611.27 9612.59 9613.77 9615.05 9616.12 9617.16 9618.29 9619.22 9620.21 9621.07 9621.84 9622.67 9623.32 9623.97 9624.65 9625.19 9625.74 9626.21 9626.59 9626.96 9627.27 9627.45 9627.76 9627.81 9628.03 9628.05 9628.12 9627.92 9627.9 9627.65 9627.54 9627.3 9626.93 9626.55 9626.17 9625.73 9625.2 9624.55 9624 9623.32 9622.63 9621.85 9621.04 9620.15 9619.28 9618.27 9617.22 9616.12 9615.02 9613.77 9612.63 9611.31 9610.01 9608.6 9607.16 9605.65 9604.13 9602.52 9600.79 9599.18 9597.48 9595.68 9593.82 9591.83 9590.01 9587.96 9585.9 9583.83 9581.67 9579.46 9577.22 9574.95 9572.53 9570.29 9567.85 9565.38 9562.81 9560.28 9557.67 9554.96 9552.21 9549.47 9546.67 9543.73 9540.91 9537.87 9534.9 9531.8 9528.65 9525.57 9522.37 9519.13 9515.73 9512.45 9509.06
7830.16 7838.73 7847.44 7855.97 7864.64 7873.15 7881.66 7890.16 7898.77 7907.45 7915.94 7924.58 7933.13 7941.55 7950.23 7958.9 7967.38 7975.97 7984.44 7992.99 8001.58 8010.08 8018.73 8027.22 8035.69 8044.32 8052.82 8061.46 8069.94 8078.4 8087.12 8095.52 8104.1 8112.54 8121.06 8129.61 8138.1 8146.47 8155.07 8163.53 8172.02 8180.6 8189.01 8197.49 8206.09 8214.46 8222.94 8231.29 8239.7 8248.21 8256.64 8264.98 8273.44 8281.77 8290.19 8298.58 8307.02 8315.28 8323.71 8332.05 8340.58 8348.75 8357.11 8365.54 8373.77 8382.15 8390.38 8398.67 8406.88 8415.16 8423.33 8431.68 8439.93 8448.19 8456.39 8464.54 8472.73 8480.94 8489.06 8497.27 8505.37 8513.51 8521.74 8529.71 8537.83 8545.95 8553.94 8561.91 8570.01 8578.15 8586.12 8594.21 8602.04 8610.08 8617.97 8625.99 8633.86 8641.84 8649.67 8657.52 8665.47 8673.19 8681.08 8688.91 8696.62 8704.48 8712.29 8719.94 8727.69 8735.41 8743.12 8750.77 8758.42 8766.06 8773.56 8781.33 8788.89 8796.37 8803.9 8811.41 8818.87 8826.45 8833.89 8841.28 8848.67 8856.16 8863.35 8870.81 8878.16 8885.54 8892.72 8899.99 8907.23 8914.52 8921.59 8928.77 8935.89 8942.83 8950.05 8957.11 8964.22 8971.24 8978.15 8985.16 8992.09 8999.09 9005.88 9012.76 9019.43 9026.38 9033.18 9039.93 9046.72 9053.26 9059.9 9066.62 9073.27 9079.88 9086.31 9092.88 9099.36 9105.83 9112.23 9118.67 9125.04 9131.37 9137.78 9143.89 9150.14 9156.49 9162.57 9168.75 9174.89 9180.87 9186.94 9193.08 9199 9204.94 9210.88 9216.8 9222.65 9228.44 9234.33 9239.86 9245.66 9251.32 9256.92 9262.6 9268.17 9273.65 9279.2 9284.57 9290.04 9295.48 9300.8 9306.2 9311.37 9316.64 9321.87 9327.03 9332.09 9337.22 9342.3 9347.3 9352.24 9357.06 9362.05 9366.92 9371.73 9376.48 9381.21 9385.84 9390.49 9395.09 9399.74 9404.23 9408.66 9413.17 9417.6 9421.97 9426.13 9430.54 9434.67 9438.85 9442.98 9447.13 9451.13 9455.25 9459.2 9463.14 9466.97 9470.76 9474.63 9478.37 9482.05 9485.75 9489.26 9492.86 9496.39 9499.92 9503.21 9506.66 9509.92 9513.24 9516.51 9519.72 9522.91 9526.03 9529.01 9531.97 9534.96 9537.88 9540.74 9543.55 9546.28 9548.96 9551.76 9554.38 9556.85 9559.35 9561.84 9564.33 9566.75 9569.11 9571.31 9573.56 9575.75 9577.85 9580.04 9582.06 9583.95 9586 9587.83 9589.6 9591.4 9593.2 9594.91 9596.54 9598.14 9599.68 9601.19 9602.52 9603.9 9605.28 9606.55 9607.9 9608.99 9610.15 9611.15 9612.23 9613.18 9614.18 9614.95 9615.79 9616.52 9617.31 9617.93 9618.62 9619.2 9619.68 9620.16 9620.59 9620.84 9621.21 9621.47 9621.64 9621.8 9621.88 9621.96 9621.92 9621.92 9621.77 9621.66 9621.52 9621.23 9620.91 9620.55 9620.12 9619.67 9619.18 9618.61 9617.95 9617.33 9616.61 9615.75 9614.99 9614 9613.17 9612.23 9611.14 9610.07 9608.99 9607.79 9606.67 9605.29 9603.93 9602.59 9601.16 9599.64 9598.06 9596.47 9594.88 9593.23 9591.5 9589.73 9587.82 9585.95 9584.05 9581.97 9580 9577.9 9575.77 9573.58 9571.38 9568.97 9566.74 9564.4 9561.86 9559.49 9556.9 9554.31 9551.71 9549.03 9546.31 9543.64 9540.77 9537.88 9534.94 9532.02 9528.98 9525.93 9522.89 9519.66 9516.53 9513.4 9510 9506.64 9503.23
7826.97 7835.57 7844.12 7852.71 7861.18 7869.81 7878.29 7886.86 7895.29 7904.05 7912.51 7921.11 7929.68 7938.29 7946.8 7955.48 7963.96 7972.48 7981.03 7989.5 7998.06 8006.68 8015.2 8023.8 8032.3 8040.67 8049.35 8057.83 8066.37 8074.91 8083.4 8091.87 8100.37 8108.93 8117.46 8125.91 8134.5 8142.91 8151.33 8159.74 8168.45 8176.78 8185.26 8193.67 8202.22 8210.55 8219.06 8227.54 8235.89 8244.27 8252.73 8261.28 8269.5 8278.04 8286.36 8294.67 8303.06 8311.52 8319.65 8328.04 8336.38 8344.81 8353.12 8361.34 8369.83 8377.96 8386.39 8394.59 8402.9 8411.08 8419.36 8427.47 8435.78 8443.97 8452.13 8460.49 8468.64 8476.78 8484.89 8493.13 8501.28 8509.29 8517.37 8525.49 8533.59 8541.69 8549.67 8557.71 8565.77 8573.85 8581.83 8589.79 8597.79 8605.7 8613.65 8621.67 8629.54 8637.37 8645.3 8653.19 8661.04 8668.83 8676.72 8684.45 8692.27 8700.07 8707.75 8715.51 8723.21 8730.85 8738.56 8746.23 8753.87 8761.39 8769.11 8776.56 8784.25 8791.72 8799.22 8806.85 8814.13 8821.71 8829.2 8836.59 8844.03 8851.3 8858.64 8866.06 8873.28 8880.68 8887.85 8895.25 8902.41 8909.52 8916.82 8923.9 8931 8938.14 8945.2 8952.19 8959.24 8966.34 8973.16 8980.2 8987.14 8994.08 9000.92 9007.7 9014.45 9021.37 9028.07 9034.88 9041.63 9048.22 9055 9061.57 9068.21 9074.72 9081.13 9087.81 9094.22 9100.71 9107.03 9113.47 9119.92 9126.07 9132.45 9138.8 9144.96 9151.15 9157.37 9163.43 9169.56 9175.52 9181.69 9187.67 9193.67 9199.64 9205.58 9211.47 9217.28 9223.02 9228.87 9234.58 9240.37 9245.92 9251.6 9257.13 9262.84 9268.17 9273.77 9279.16 9284.62 9289.97 9295.39 9300.62 9305.87 9311.13 9316.29 9321.52 9326.63 9331.65 9336.69 9341.76 9346.66 9351.54 9356.45 9361.28 9366.1 9370.79 9375.55 9380.15 9384.94 9389.51 9394.11 9398.52 9403.04 9407.41 9411.88 9416.24 9420.53 9424.76 9429.05 9433.14 9437.32 9441.35 9445.48 9449.4 9453.33 9457.35 9461.17 9464.99 9468.81 9472.57 9476.2 9479.92 9483.45 9486.97 9490.54 9493.9 9497.41 9500.88 9504.12 9507.33 9510.61 9513.76 9516.96 9520.05 9523.11 9526.05 9529.14 9531.9 9534.76 9537.6 9540.39 9543.12 9545.8 9548.39 9550.97 9553.49 9556.05 9558.33 9560.79 9563.02 9565.33 9567.61 9569.74 9571.92 9573.97 9575.93 9578 9579.88 9581.77 9583.58 9585.44 9587.16 9588.83 9590.44 9592.04 9593.6 9595.12 9596.46 9597.86 9599.21 9600.59 9601.7 9602.9 9604.09 9605.09 9606.12 9607.22 9608.03 9608.96 9609.72 9610.53 9611.25 9611.91 9612.54 9613.09 9613.52 9614.05 9614.48 9614.84 9615.16 9615.39 9615.64 9615.71 9615.85 9615.88 9615.91 9615.87 9615.69 9615.59 9615.39 9615.09 9614.89 9614.46 9614.1 9613.62 9613.11 9612.48 9611.9 9611.17 9610.53 9609.8 9608.96 9608.04 9607.02 9606.11 9605.18 9604.12 9602.86 9601.71 9600.46 9599.2 9597.89 9596.56 9595.11 9593.58 9592.13 9590.55 9588.88 9587.12 9585.46 9583.69 9581.85 9579.96 9578.05 9576.06 9573.99 9571.9 9569.74 9567.63 9565.39 9563.05 9560.72 9558.39 9555.9 9553.44 9551.02 9548.38 9545.7 9543.14 9540.36 9537.6 9534.75 9531.99 9529.01 9526.17 9523.21 9520.05 9516.95 9513.88 9510.6 9507.37 9504.13 9500.75 9497.34
7823.69 7832.1 7840.76 7849.29 7857.87 7866.36 7875.02 7883.51 7892.14 7900.63 7909.21 7917.69 7926.27 7934.72 7943.3 7951.88 7960.52 7968.93 7977.69 7986.14 7994.55 8003.14 8011.65 8020.28 8028.69 8037.1 8045.7 8054.21 8062.73 8071.25 8079.82 8088.24 8096.85 8105.2 8113.68 8122.28 8130.64 8139.16 8147.48 8156.14 8164.65 8173.04 8181.46 8189.82 8198.43 8206.78 8215.23 8223.58 8232.1 8240.51 8248.85 8257.16 8265.69 8274.11 8282.48 8290.72 8299.12 8307.34 8315.75 8324.2 8332.46 8340.69 8349.04 8357.51 8365.75 8373.97 8382.3 8390.44 8398.73 8406.95 8415.32 8423.41 8431.59 8439.91 8448 8456.18 8464.45 8472.65 8480.7 8488.81 8497.08 8505.12 8513.21 8521.26 8529.26 8537.35 8545.45 8553.39 8561.51 8569.43 8577.39 8585.46 8593.46 8601.35 8609.39 8617.22 8625.14 8632.91 8640.79 8648.66 8656.51 8664.29 8672.07 8680 8687.65 8695.48 8703.14 8710.89 8718.62 8726.35 8734.03 8741.66 8749.14 8756.83 8764.35 8772.08 8779.56 8787.06 8794.58 8802.12 8809.59 8816.93 8824.44 8831.78 8839.15 8846.6 8853.96 8861.2 8868.5 8875.82 8883.03 8890.27 8897.46 8904.71 8911.8 8919.12 8926.07 8933.23 8940.27 8947.27 8954.26 8961.28 8968.26 8975.16 8982.13 8988.92 8995.87 9002.7 9009.44 9016.32 9023.07 9029.85 9036.47 9043.14 9049.9 9056.38 9062.93 9069.5 9076.04 9082.6 9089.08 9095.48 9101.92 9108.3 9114.62 9120.82 9127.19 9133.47 9139.75 9145.92 9151.99 9158.16 9164.32 9170.3 9176.43 9182.43 9188.26 9194.22 9200.1 9205.96 9211.93 9217.64 9223.49 9229.23 9234.8 9240.46 9246.11 9251.71 9257.34 9262.74 9268.25 9273.71 9279.06 9284.41 9289.73 9295.11 9300.33 9305.52 9310.83 9315.8 9320.98 9326.15 9331.07 9336.07 9340.99 9345.97 9350.75 9355.67 9360.43 9365.23 9369.8 9374.54 9379.26 9383.82 9388.35 9392.88 9397.27 9401.74 9406.1 9410.51 9414.84 9419.04 9423.27 9427.38 9431.41 9435.61 9439.55 9443.66 9447.54 9451.47 9455.33 9459.09 9462.92 9466.67 9470.36 9474 9477.49 9481.12 9484.64 9488.14 9491.52 9494.82 9498.28 9501.46 9504.69 9507.88 9511.02 9514.03 9517.15 9520.13 9523.16 9525.97 9528.83 9531.65 9534.41 9537.04 9539.68 9542.39 9545 9547.49 9549.96 9552.35 9554.76 9557.08 9559.41 9561.54 9563.72 9565.85 9567.97 9570.02 9571.95 9573.91 9575.77 9577.62 9579.42 9581.12 9582.75 9584.35 9585.94 9587.51 9588.99 9590.44 9591.83 9593.2 9594.31 9595.58 9596.85 9597.93 9599.04 9600.07 9601.02 9601.93 9602.78 9603.65 9604.4 9605.14 9605.75 9606.39 9607.04 9607.44 9607.89 9608.3 9608.7 9608.97 9609.3 9609.45 9609.52 9609.78 9609.72 9609.79 9609.68 9609.58 9609.47 9609.31 9608.97 9608.75 9608.36 9607.95 9607.52 9607.01 9606.37 9605.72 9605.09 9604.39 9603.69 9602.8 9601.86 9601.06 9600.08 9599.07 9597.93 9596.78 9595.72 9594.44 9593.08 9591.87 9590.43 9588.95 9587.55 9585.96 9584.46 9582.86 9581.15 9579.39 9577.56 9575.73 9573.83 9571.93 9570.02 9568 9565.93 9563.77 9561.63 9559.38 9557.08 9554.68 9552.36 9549.95 9547.52 9544.88 9542.37 9539.78 9536.98 9534.39 9531.68 9528.8 9526 9523.09 9520.15 9517.21 9514.1 9510.97 9507.78 9504.74 9501.46 9498.2 9494.87 9491.46
7820.34 7829.04 7837.43 7846 7854.43 7863.04 7871.62 7880.15 7888.68 7897.12 7905.64 7914.17 7922.8 7931.36 7939.94 7948.4 7956.93 7965.52 7974.09 7982.56 7991.13 7999.49 8007.91 8016.57 8025.01 8033.52 8042.08 8050.62 8059.02 8067.57 8076.06 8084.54 8093.12 8101.44 8110.16 8118.58 8126.82 8135.39 8143.9 8152.28 8160.81 8169.14 8177.67 8186.04 8194.44 8202.9 8211.44 8219.8 8228.21 8236.57 8244.93 8253.31 8261.69 8270.22 8278.58 8286.77 8295.15 8303.48 8311.84 8320.14 8328.51 8336.76 8345.07 8353.27 8361.54 8369.9 8378.16 8386.41 8394.69 8402.89 8411.08 8419.21 8427.46 8435.65 8443.9 8452.09 8460.29 8468.23 8476.49 8484.68 8492.68 8500.88 8508.84 8516.96 8525.05 8533.04 8541.03 8549.11 8557.1 8565.13 8573.04 8581.06 8588.96 8596.94 8604.8 8612.81 8620.62 8628.53 8636.31 8644.16 8652.06 8659.87 8667.65 8675.36 8683.22 8690.97 8698.66 8706.22 8714.09 8721.73 8729.28 8737.07 8744.49 8752.12 8759.79 8767.23 8774.81 8782.37 8789.98 8797.31 8804.73 8812.18 8819.62 8826.98 8834.44 8841.78 8849.16 8856.44 8863.71 8870.97 8878.3 8885.39 8892.58 8899.83 8907 8914.11 8921.24 8928.23 8935.36 8942.34 8949.28 8956.36 8963.33 8970.2 8977.12 8984 8990.74 8997.54 9004.5 9011.27 9017.96 9024.7 9031.41 9037.94 9044.59 9051.33 9057.93 9064.4 9070.88 9077.35 9083.76 9090.29 9096.69 9103.02 9109.36 9115.68 9121.93 9128.1 9134.46 9140.58 9146.78 9152.85 9158.93 9165.06 9170.95 9177.04 9182.87 9188.95 9194.74 9200.59 9206.42 9212.23 9217.92 9223.7 9229.42 9234.99 9240.61 9246.2 9251.77 9257.28 9262.78 9268.24 9273.53 9278.89 9284.27 9289.59 9294.74 9299.97 9305.11 9310.39 9315.34 9320.41 9325.49 9330.42 9335.29 9340.28 9345.14 9349.95 9354.81 9359.49 9364.25 9368.92 9373.4 9378.11 9382.66 9387.12 9391.52 9395.97 9400.41 9404.71 9408.98 9413.22 9417.38 9421.57 9425.72 9429.74 9433.79 9437.64 9441.71 9445.63 9449.47 9453.29 9456.98 9460.82 9464.49 9468.09 9471.67 9475.24 9478.71 9482.19 9485.51 9488.99 9492.26 9495.53 9498.76 9501.89 9505.05 9508.08 9511.15 9514.19 9517.06 9519.96 9522.87 9525.71 9528.29 9531.06 9533.69 9536.33 9539.01 9541.45 9543.92 9546.36 9548.66 9551.01 9553.38 9555.53 9557.67 9559.76 9561.84 9563.92 9565.89 9567.76 9569.68 9571.47 9573.23 9575.01 9576.71 9578.27 9579.77 9581.41 9582.9 9584.42 9585.74 9586.97 9588.31 9589.46 9590.7 9591.78 9592.91 9593.87 9594.93 9595.81 9596.67 9597.5 9598.27 9598.9 9599.62 9600.23 9600.81 9601.36 9601.85 9602.16 9602.62 9602.81 9603.11 9603.25 9603.46 9603.66 9603.63 9603.63 9603.54 9603.46 9603.35 9603.13 9602.89 9602.59 9602.29 9601.7 9601.28 9600.8 9600.24 9599.65 9599.02 9598.26 9597.55 9596.56 9595.76 9594.86 9593.89 9592.81 9591.78 9590.65 9589.54 9588.24 9587.03 9585.66 9584.31 9582.89 9581.42 9579.85 9578.26 9576.67 9575.05 9573.27 9571.45 9569.7 9567.83 9565.91 9563.87 9561.85 9559.77 9557.74 9555.51 9553.29 9550.97 9548.66 9546.33 9543.88 9541.4 9538.95 9536.34 9533.74 9531.18 9528.35 9525.72 9522.91 9519.96 9517.15 9514.15 9511.11 9508.11 9505.06 9501.85 9498.72 9495.53 9492.31 9488.91 9485.49
7816.98 7825.52 7834.12 7842.59 7851.04 7859.62 7868.13 7876.63 7885.13 7893.73 7902.35 7910.75 7919.27 7927.84 7936.43 7944.75 7953.3 7961.99 7970.36 7978.96 7987.46 7996.04 8004.55 8013.03 8021.55 8030 8038.54 8046.99 8055.43 8063.98 8072.53 8080.9 8089.44 8097.83 8106.3 8114.78 8123.16 8131.81 8140.15 8148.55 8156.97 8165.45 8173.81 8182.41 8190.67 8199.09 8207.43 8215.85 8224.42 8232.66 8240.98 8249.43 8257.83 8266.15 8274.55 8282.81 8291.19 8299.59 8307.79 8316.06 8324.48 8332.75 8340.9 8349.26 8357.65 8365.72 8374.08 8382.37 8390.42 8398.7 8407.06 8415.1 8423.41 8431.55 8439.72 8447.84 8456.1 8464.06 8472.19 8480.3 8488.43 8496.53 8504.62 8512.68 8520.74 8528.77 8536.83 8544.76 8552.7 8560.66 8568.73 8576.64 8584.52 8592.4 8600.42 8608.33 8616.09 8623.92 8631.87 8639.66 8647.48 8655.21 8663.04 8670.71 8678.63 8686.26 8693.98 8701.76 8709.29 8717.08 8724.64 8732.26 8739.89 8747.48 8755.06 8762.65 8770.17 8777.63 8785.14 8792.55 8800.17 8807.51 8814.86 8822.27 8829.6 8837.04 8844.29 8851.57 8858.89 8866.15 8873.27 8880.58 8887.75 8894.9 8901.97 8909.08 8916.23 8923.24 8930.29 8937.35 8944.41 8951.27 8958.19 8965.18 8972.05 8978.87 8985.72 8992.55 8999.4 9006.05 9012.9 9019.49 9026.3 9032.91 9039.59 9046.04 9052.56 9059.17 9065.65 9072.17 9078.61 9084.99 9091.31 9097.84 9104.03 9110.25 9116.69 9122.85 9129.05 9135.29 9141.38 9147.54 9153.57 9159.61 9165.69 9171.57 9177.51 9183.43 9189.24 9195.15 9201.02 9206.79 9212.54 9218.15 9223.97 9229.45 9235.1 9240.64 9246.26 9251.72 9257.17 9262.62 9267.99 9273.31 9278.69 9283.92 9289.13 9294.32 9299.54 9304.65 9309.76 9314.75 9319.81 9324.65 9329.68 9334.65 9339.48 9344.23 9349.04 9353.79 9358.46 9363.15 9367.64 9372.32 9376.76 9381.31 9385.72 9390.15 9394.53 9398.87 9403.2 9407.39 9411.54 9415.7 9419.81 9423.91 9427.89 9431.9 9435.87 9439.66 9443.58 9447.36 9451.11 9454.86 9458.56 9462.13 9465.72 9469.25 9472.72 9476.16 9479.59 9482.98 9486.27 9489.6 9492.74 9495.89 9499.04 9502.14 9505.14 9508.11 9511.1 9513.93 9516.74 9519.62 9522.41 9525.07 9527.74 9530.21 9532.87 9535.33 9537.77 9540.27 9542.55 9544.96 9547.19 9549.49 9551.5 9553.75 9555.72 9557.71 9559.73 9561.63 9563.57 9565.37 9567.1 9568.83 9570.48 9572.11 9573.7 9575.26 9576.77 9578.16 9579.53 9580.91 9582.11 9583.33 9584.52 9585.6 9586.71 9587.71 9588.67 9589.63 9590.48 9591.35 9592.1 9592.81 9593.46 9594.04 9594.64 9595.13 9595.64 9596.04 9596.39 9596.68 9596.89 9597.2 9597.29 9597.26 9597.45 9597.41 9597.34 9597.27 9597.13 9596.92 9596.72 9596.38 9596.03 9595.57 9595.17 9594.65 9594.11 9593.44 9592.79 9592.04 9591.27 9590.52 9589.61 9588.69 9587.73 9586.67 9585.68 9584.57 9583.36 9582.11 9580.87 9579.53 9578.21 9576.7 9575.18 9573.74 9572.13 9570.56 9568.91 9567.15 9565.45 9563.5 9561.62 9559.77 9557.72 9555.67 9553.67 9551.56 9549.31 9547.12 9544.87 9542.56 9540.25 9537.8 9535.33 9532.78 9530.37 9527.72 9525.07 9522.39 9519.67 9516.84 9513.86 9511.06 9508.11 9505.17 9502.1 9499.1 9495.92 9492.7 9489.55 9486.32 9482.95 9479.57
7813.6 7822.16 7830.59 7839.2 7847.64 7856.18 7864.71 7873.31 7881.82 7890.27 7898.78 7907.3 7915.75 7924.23 7932.8 7941.34 7949.84 7958.24 7966.86 7975.3 7983.89 7992.33 8000.9 8009.42 8017.85 8026.34 8034.83 8043.31 8051.77 8060.25 8068.68 8077.15 8085.67 8094.09 8102.59 8111.08 8119.41 8127.86 8136.26 8144.68 8153.18 8161.54 8169.86 8178.52 8186.8 8195.06 8203.52 8212.12 8220.38 8228.8 8237.13 8245.39 8253.78 8262.19 8270.6 8278.85 8287.24 8295.5 8303.85 8312.09 8320.3 8328.72 8336.87 8345.12 8353.45 8361.73 8370.02 8378.04 8386.22 8394.46 8402.83 8410.92 8419.03 8427.34 8435.44 8443.51 8451.74 8459.72 8467.86 8476.06 8484.15 8492.25 8500.22 8508.35 8516.28 8524.42 8532.41 8540.38 8548.25 8556.25 8564.07 8572.18 8580.08 8588.04 8595.99 8603.8 8611.64 8619.52 8627.34 8635.18 8642.95 8650.75 8658.47 8666.21 8674.01 8681.67 8689.38 8697.08 8704.67 8712.31 8720 8727.62 8735.2 8742.63 8750.29 8757.88 8765.32 8772.8 8780.32 8787.7 8795.2 8802.53 8810 8817.41 8824.71 8832.12 8839.39 8846.64 8853.88 8861.18 8868.27 8875.54 8882.83 8890 8896.96 8904.08 8911.23 8918.21 8925.26 8932.29 8939.23 8946.17 8953.11 8960.1 8966.94 8973.76 8980.5 8987.37 8994.17 9000.86 9007.65 9014.4 9021.04 9027.6 9034.17 9040.85 9047.39 9053.83 9060.29 9066.92 9073.35 9079.75 9086.19 9092.44 9098.67 9105.05 9111.27 9117.45 9123.64 9129.89 9135.97 9142.07 9148.15 9154.09 9160.18 9166.15 9172.14 9177.95 9183.91 9189.59 9195.45 9201.24 9206.87 9212.66 9218.34 9223.99 9229.56 9235.14 9240.59 9246.11 9251.49 9256.98 9262.29 9267.7 9272.98 9278.28 9283.51 9288.63 9293.85 9298.93 9303.98 9309.11 9314.07 9319.05 9323.93 9328.81 9333.71 9338.53 9343.34 9348 9352.68 9357.32 9361.87 9366.49 9370.94 9375.48 9379.87 9384.31 9388.72 9393.03 9397.29 9401.4 9405.65 9409.76 9413.89 9418.05 9422.09 9425.92 9429.82 9433.71 9437.59 9441.46 9445.18 9448.92 9452.61 9456.2 9459.73 9463.29 9466.74 9470.15 9473.54 9476.92 9480.26 9483.49 9486.71 9489.93 9492.95 9496.04 9499.04 9502.12 9504.96 9507.88 9510.72 9513.55 9516.29 9518.93 9521.56 9524.18 9526.73 9529.22 9531.65 9534.09 9536.43 9538.77 9541.03 9543.23 9545.47 9547.53 9549.51 9551.6 9553.63 9555.53 9557.43 9559.26 9560.87 9562.67 9564.42 9565.95 9567.58 9568.98 9570.51 9572.09 9573.32 9574.59 9575.93 9577.04 9578.34 9579.43 9580.53 9581.48 9582.48 9583.4 9584.27 9585.15 9585.9 9586.56 9587.29 9587.79 9588.44 9588.95 9589.43 9589.79 9590.08 9590.49 9590.73 9590.9 9591.09 9591.14 9591.17 9591.21 9591.2 9591.07 9590.9 9590.66 9590.45 9590.1 9589.78 9589.41 9588.92 9588.38 9587.82 9587.24 9586.58 9585.88 9585.07 9584.25 9583.3 9582.54 9581.52 9580.48 9579.43 9578.29 9577.16 9575.9 9574.64 9573.28 9571.86 9570.56 9569.06 9567.54 9565.94 9564.31 9562.69 9560.86 9559.15 9557.41 9555.54 9553.57 9551.54 9549.6 9547.48 9545.4 9543.2 9541.05 9538.74 9536.43 9534.1 9531.75 9529.31 9526.68 9524.2 9521.63 9518.94 9516.26 9513.49 9510.72 9507.93 9504.93 9501.96 9499.02 9496.04 9492.98 9489.84 9486.74 9483.5 9480.21 9476.92 9473.56
7810.31 7818.72 7827.25 7835.68 7844.31 7852.8 7861.31 7869.71 7878.32 7886.85 7895.31 7903.72 7912.24 7920.78 7929.23 7937.73 7946.36 7954.78 7963.19 7971.77 7980.14 7988.73 7997.24 8005.73 8014.18 8022.57 8031.15 8039.63 8048.02 8056.53 8064.91 8073.44 8081.94 8090.34 8098.77 8107.19 8115.61 8124.03 8132.39 8140.9 8149.34 8157.72 8166.19 8174.53 8182.9 8191.18 8199.62 8208.03 8216.38 8224.71 8233.03 8241.46 8249.9 8258.19 8266.57 8274.79 8283.08 8291.44 8299.72 8307.94 8316.27 8324.46 8332.88 8341.03 8349.19 8357.49 8365.8 8373.99 8382.06 8390.29 8398.56 8406.65 8414.91 8423.03 8431.22 8439.24 8447.39 8455.51 8463.56 8471.78 8479.66 8487.89 8495.92 8503.86 8511.84 8519.93 8527.89 8535.93 8543.83 8551.69 8559.67 8567.68 8575.64 8583.45 8591.38 8599.32 8607.15 8614.86 8622.73 8630.4 8638.33 8646.16 8653.87 8661.49 8669.29 8676.95 8684.73 8692.3 8699.99 8707.72 8715.24 8722.86 8730.66 8738.06 8745.55 8753.12 8760.55 8768.05 8775.53 8782.96 8790.46 8797.77 8805.1 8812.52 8819.9 8827.1 8834.5 8841.8 8848.98 8856.25 8863.48 8870.65 8877.76 8884.91 8892.05 8899.13 8906.25 8913.17 8920.3 8927.35 8934.19 8941.08 8948.06 8954.85 8961.8 8968.67 8975.42 8982.32 8988.96 8995.67 9002.48 9009.2 9015.8 9022.48 9029.06 9035.52 9042.11 9048.63 9055.09 9061.6 9068 9074.42 9080.82 9087.19 9093.38 9099.63 9105.89 9112.18 9118.26 9124.35 9130.66 9136.59 9142.63 9148.76 9154.63 9160.68 9166.59 9172.51 9178.26 9184.14 9190.01 9195.77 9201.46 9207.04 9212.68 9218.35 9223.92 9229.56 9235.03 9240.52 9245.96 9251.45 9256.75 9262.06 9267.24 9272.58 9277.78 9283.03 9288.25 9293.27 9298.27 9303.28 9308.24 9313.29 9318.22 9323.14 9327.87 9332.72 9337.4 9342.18 9346.88 9351.52 9356.07 9360.58 9365.13 9369.62 9374.09 9378.37 9382.84 9387.06 9391.38 9395.59 9399.72 9403.92 9408.03 9411.96 9416.11 9419.92 9423.91 9427.87 9431.66 9435.47 9439.17 9442.87 9446.45 9450.1 9453.64 9457.23 9460.72 9464.29 9467.51 9470.84 9474.15 9477.39 9480.57 9483.82 9486.9 9489.96 9492.98 9495.99 9498.89 9501.79 9504.58 9507.41 9510.09 9512.81 9515.43 9518.04 9520.53 9523.06 9525.53 9527.92 9530.3 9532.62 9534.91 9537.05 9539.26 9541.3 9543.4 9545.36 9547.38 9549.33 9551.15 9553.05 9554.79 9556.49 9558.18 9559.71 9561.36 9562.87 9564.29 9565.66 9567.07 9568.44 9569.73 9570.92 9572.12 9573.23 9574.32 9575.25 9576.22 9577.12 9577.99 9578.81 9579.49 9580.35 9581.01 9581.55 9582.16 9582.6 9583.06 9583.54 9583.82 9584.16 9584.4 9584.66 9584.76 9584.87 9584.97 9584.9 9584.86 9584.75 9584.63 9584.46 9584.21 9583.82 9583.55 9583.14 9582.62 9582.12 9581.55 9580.97 9580.24 9579.65 9578.82 9577.94 9577.14 9576.21 9575.2 9574.26 9573.11 9572.14 9570.86 9569.64 9568.44 9567.02 9565.78 9564.33 9562.89 9561.37 9559.74 9558.19 9556.51 9554.74 9552.95 9551.15 9549.27 9547.33 9545.36 9543.46 9541.29 9539.28 9537.13 9534.95 9532.62 9530.26 9527.9 9525.58 9523.14 9520.53 9518.04 9515.46 9512.79 9510.2 9507.34 9504.63 9501.82 9498.9 9495.97 9493.02 9489.89 9486.97 9483.74 9480.7 9477.5 9474.17 9470.94 9467.6
7806.87 7815.23 7823.84 7832.17 7840.79 7849.41 7857.76 7866.33 7874.71 7883.24 7891.78 7900.3 7908.66 7917.2 7925.76 7934.2 7942.67 7951.22 7959.69 7968.17 7976.58 7985.14 7993.46 8002.04 8010.47 8018.85 8027.39 8035.8 8044.34 8052.75 8061.2 8069.63 8078 8086.35 8095.02 8103.37 8111.91 8120.23 8128.62 8137.02 8145.43 8153.77 8162.34 8170.66 8179.07 8187.4 8195.77 8204.15 8212.41 8220.78 8229.19 8237.47 8245.72 8254.05 8262.52 8270.77 8278.95 8287.27 8295.65 8303.8 8312.16 8320.43 8328.56 8336.91 8345.04 8353.3 8361.43 8369.77 8377.95 8386.14 8394.36 8402.5 8410.55 8418.78 8426.78 8434.97 8443.11 8451.13 8459.22 8467.33 8475.4 8483.48 8491.57 8499.53 8507.47 8515.51 8523.51 8531.42 8539.34 8547.38 8555.26 8563.15 8571.11 8578.86 8586.87 8594.77 8602.39 8610.34 8618.08 8625.9 8633.72 8641.49 8649.23 8656.93 8664.6 8672.35 8679.99 8687.64 8695.27 8702.94 8710.64 8718 8725.72 8733.24 8740.7 8748.3 8755.76 8763.23 8770.71 8778.07 8785.58 8792.83 8800.34 8807.64 8814.99 8822.23 8829.53 8836.72 8843.99 8851.19 8858.36 8865.63 8872.68 8879.82 8887.01 8894.08 8901.07 8908.16 8915.14 8922.19 8929.08 8935.85 8942.94 8949.83 8956.71 8963.57 8970.25 8977.03 8983.76 8990.45 8997.21 9003.9 9010.45 9017.2 9023.84 9030.27 9036.78 9043.38 9049.75 9056.26 9062.64 9068.99 9075.43 9081.77 9088.07 9094.25 9100.63 9106.67 9112.79 9118.96 9125.02 9131.08 9137.25 9143.16 9149.18 9155.12 9160.92 9166.91 9172.82 9178.6 9184.37 9190.12 9195.83 9201.52 9207.18 9212.83 9218.43 9223.89 9229.41 9234.84 9240.25 9245.63 9251.02 9256.35 9261.66 9266.9 9272.03 9277.32 9282.31 9287.51 9292.49 9297.54 9302.57 9307.48 9312.45 9317.28 9322.03 9326.88 9331.62 9336.3 9340.95 9345.6 9350.17 9354.77 9359.28 9363.69 9368.13 9372.59 9376.78 9381.15 9385.48 9389.53 9393.77 9397.89 9402.02 9406.1 9410.05 9413.97 9417.92 9421.8 9425.69 9429.41 9433.11 9436.86 9440.6 9444.18 9447.6 9451.18 9454.6 9458.07 9461.48 9464.78 9468.13 9471.35 9474.55 9477.67 9480.74 9483.85 9486.91 9489.79 9492.73 9495.65 9498.46 9501.2 9503.93 9506.75 9509.31 9511.75 9514.41 9516.87 9519.38 9521.75 9524.07 9526.39 9528.66 9530.83 9533.08 9535.08 9537.23 9539.11 9541.09 9543.03 9544.91 9546.76 9548.55 9550.18 9551.87 9553.47 9554.98 9556.52 9558.06 9559.43 9560.77 9562.11 9563.36 9564.6 9565.68 9566.92 9568.07 9568.93 9569.87 9570.89 9571.74 9572.52 9573.25 9573.93 9574.68 9575.36 9575.82 9576.36 9576.81 9577.2 9577.59 9577.84 9578.09 9578.31 9578.51 9578.59 9578.62 9578.6 9578.48 9578.47 9578.29 9578.08 9577.85 9577.49 9577.17 9576.8 9576.3 9575.81 9575.22 9574.6 9574 9573.27 9572.48 9571.74 9570.86 9569.84 9568.99 9567.92 9566.86 9565.74 9564.58 9563.37 9562.11 9560.75 9559.49 9557.94 9556.53 9555.01 9553.42 9551.89 9550.22 9548.51 9546.64 9544.91 9543.07 9541.09 9539.19 9537.19 9535.1 9532.97 9530.93 9528.72 9526.37 9524.14 9521.8 9519.33 9516.92 9514.42 9511.8 9509.23 9506.68 9503.97 9501.19 9498.47 9495.51 9492.76 9489.8 9486.85 9483.87 9480.8 9477.63 9474.59 9471.4 9468.14 9464.78 9461.41
